-175.00  23.00      1.2982    
-175.00  24.00      1.0984    
-175.00  25.00     0.87874    
-175.00  26.00     0.68340    
-175.00  27.00     0.53916    
-175.00  28.00     0.44896    
-175.00  29.00     0.39373    
-175.00  30.00     0.34149    
-175.00  31.00     0.26071    
-175.00  32.00     0.13343    
-175.00  33.00    -0.36204E-01
-175.00  34.00    -0.22111    
-175.00  35.00    -0.37853    
-175.00  36.00    -0.46325    
-175.00  37.00    -0.44279    
-175.00  38.00    -0.30957    
-175.00  39.00    -0.86133E-01
-175.00  40.00     0.17868    
-175.00  41.00     0.42169    
-175.00  42.00     0.58248    
-175.00  43.00     0.62020    
-175.00  44.00     0.52602    
-175.00  45.00     0.32645    
-175.00  46.00     0.77488E-01
-175.00  47.00    -0.15013    
-175.00  48.00    -0.28917    
-175.00  49.00    -0.29434    
-175.00  50.00    -0.15385    
-175.00  51.00     0.10699    
-175.00  52.00     0.43261    
-175.00  53.00     0.75154    
-175.00  54.00     0.99470    
-175.00  55.00      1.1127    
-175.00  56.00      1.0874    
-175.00  57.00     0.93493    
-175.00  58.00     0.69976    
-175.00  59.00     0.44278    
-175.00  60.00     0.22300    
-175.00  61.00     0.84632E-01
-175.00  62.00     0.45329E-01
-175.00  63.00     0.94909E-01
-175.00  64.00     0.19917    
-175.00  65.00     0.31193    
-175.00  66.00     0.38850    
-175.00  67.00     0.39760    
-175.00  68.00     0.33021    
-175.00  69.00     0.19945    
-175.00  70.00     0.36855E-01
-175.00  71.00    -0.11922    
-175.00  72.00    -0.23324    
-175.00  73.00    -0.28415    
-175.00  74.00    -0.26800    
-175.00  75.00    -0.20120    
-175.00  76.00    -0.11070    
-175.00  77.00    -0.26596E-01
-175.00  78.00     0.26830E-01
-175.00  79.00     0.39001E-01
-175.00  80.00     0.15961E-01
-175.00  81.00    -0.23164E-01
-175.00  82.00    -0.53920E-01
-175.00  83.00    -0.54562E-01
-175.00  84.00    -0.14091E-01
-175.00  85.00     0.68248E-01
-175.00  86.00     0.16942    
-175.00  87.00     0.26436    
-175.00  88.00     0.32597    
-175.00  89.00     0.33501    
-174.00 -89.00    -0.10653    
-174.00 -88.00    -0.28069    
-174.00 -87.00    -0.42250    
-174.00 -86.00    -0.52668    
-174.00 -85.00    -0.60297    
-174.00 -84.00    -0.66874    
-174.00 -83.00    -0.74024    
-174.00 -82.00    -0.82444    
-174.00 -81.00    -0.91835    
-174.00 -80.00     -1.0048    
-174.00 -79.00     -1.0606    
-174.00 -78.00     -1.0655    
-174.00 -77.00     -1.0099    
-174.00 -76.00    -0.90355    
-174.00 -75.00    -0.77294    
-174.00 -74.00    -0.65633    
-174.00 -73.00    -0.59676    
-174.00 -72.00    -0.62493    
-174.00 -71.00    -0.75126    
-174.00 -70.00    -0.96219    
-174.00 -69.00     -1.2210    
-174.00 -68.00     -1.4769    
-174.00 -67.00     -1.6785    
-174.00 -66.00     -1.7861    
-174.00 -65.00     -1.7817    
-174.00 -64.00     -1.6705    
-174.00 -63.00     -1.4800    
-174.00 -62.00     -1.2484    
-174.00 -61.00     -1.0160    
-174.00 -60.00    -0.81256    
-174.00 -59.00    -0.65384    
-174.00 -58.00    -0.53980    
-174.00 -57.00    -0.45913    
-174.00 -56.00    -0.39649    
-174.00 -55.00    -0.34013    
-174.00 -54.00    -0.28667    
-174.00 -53.00    -0.24237    
-174.00 -52.00    -0.21995    
-174.00 -51.00    -0.23291    
-174.00 -50.00    -0.28945    
-174.00 -49.00    -0.38695    
-174.00 -48.00    -0.51167    
-174.00 -47.00    -0.63970    
-174.00 -46.00    -0.74270    
-174.00 -45.00    -0.79426    
-174.00 -44.00    -0.77600    
-174.00 -43.00    -0.68160    
-174.00 -42.00    -0.51818    
-174.00 -41.00    -0.30449    
-174.00 -40.00    -0.67098E-01
-174.00 -39.00     0.16448    
-174.00 -38.00     0.36284    
-174.00 -37.00     0.50689    
-174.00 -36.00     0.58470    
-174.00 -35.00     0.59490    
-174.00 -34.00     0.54660    
-174.00 -33.00     0.45775    
-174.00 -32.00     0.35219    
-174.00 -31.00     0.25550    
-174.00 -30.00     0.19019    
-174.00 -29.00     0.17096    
-174.00 -28.00     0.20120    
-174.00 -27.00     0.27172    
-174.00 -26.00     0.36243    
-174.00 -25.00     0.44696    
-174.00 -24.00     0.49938    
-174.00 -23.00     0.50128    
-174.00 -22.00     0.44730    
-174.00 -21.00     0.34713    
-174.00 -20.00     0.22324    
-174.00 -19.00     0.10457    
-174.00 -18.00     0.17967E-01
-174.00 -17.00    -0.20194E-01
-174.00 -16.00    -0.93694E-02
-174.00 -15.00     0.34629E-01
-174.00 -14.00     0.84441E-01
-174.00 -13.00     0.11001    
-174.00 -12.00     0.88769E-01
-174.00 -11.00     0.13911E-01
-174.00 -10.00    -0.10219    
-174.00  -9.00    -0.23068    
-174.00  -8.00    -0.33459    
-174.00  -7.00    -0.38026    
-174.00  -6.00    -0.34835    
-174.00  -5.00    -0.24067    
-174.00  -4.00    -0.80549E-01
-174.00  -3.00     0.93530E-01
-174.00  -2.00     0.23932    
-174.00  -1.00     0.32341    
-174.00   0.00     0.33114    
-174.00   1.00     0.27043    
-174.00   2.00     0.16829    
-174.00   3.00     0.61149E-01
-174.00   4.00    -0.17784E-01
-174.00   5.00    -0.49800E-01
-174.00   6.00    -0.36725E-01
-174.00   7.00     0.47949E-03
-174.00   8.00     0.30250E-01
-174.00   9.00     0.23248E-01
-174.00  10.00    -0.34894E-01
-174.00  11.00    -0.13546    
-174.00  12.00    -0.24629    
-174.00  13.00    -0.31987    
-174.00  14.00    -0.30756    
-174.00  15.00    -0.17578    
-174.00  16.00     0.81208E-01
-174.00  17.00     0.43619    
-174.00  18.00     0.83353    
-174.00  19.00      1.2024    
-174.00  20.00      1.4752    
-174.00  21.00      1.6049    
-174.00  22.00      1.5773    
-174.00  23.00      1.4139    
-174.00  24.00      1.1638    
-174.00  25.00     0.88894    
-174.00  26.00     0.64579    
-174.00  27.00     0.47003    
-174.00  28.00     0.36836    
-174.00  29.00     0.32000    
-174.00  30.00     0.28708    
-174.00  31.00     0.23020    
-174.00  32.00     0.12407    
-174.00  33.00    -0.32117E-01
-174.00  34.00    -0.21282    
-174.00  35.00    -0.37369    
-174.00  36.00    -0.46596    
-174.00  37.00    -0.45320    
-174.00  38.00    -0.32499    
-174.00  39.00    -0.10295    
-174.00  40.00     0.16292    
-174.00  41.00     0.40688    
-174.00  42.00     0.56581    
-174.00  43.00     0.59675    
-174.00  44.00     0.49044    
-174.00  45.00     0.27458    
-174.00  46.00     0.75423E-02
-174.00  47.00    -0.23713    
-174.00  48.00    -0.38994    
-174.00  49.00    -0.40460    
-174.00  50.00    -0.26974    
-174.00  51.00    -0.12345E-01
-174.00  52.00     0.30976    
-174.00  53.00     0.62298    
-174.00  54.00     0.85682    
-174.00  55.00     0.96203    
-174.00  56.00     0.92152    
-174.00  57.00     0.75341    
-174.00  58.00     0.50478    
-174.00  59.00     0.23875    
-174.00  60.00     0.16017E-01
-174.00  61.00    -0.11864    
-174.00  62.00    -0.14781    
-174.00  63.00    -0.82920E-01
-174.00  64.00     0.40046E-01
-174.00  65.00     0.17290    
-174.00  66.00     0.26903    
-174.00  67.00     0.29561    
-174.00  68.00     0.24278    
-174.00  69.00     0.12352    
-174.00  70.00    -0.29880E-01
-174.00  71.00    -0.17771    
-174.00  72.00    -0.28286    
-174.00  73.00    -0.32273    
-174.00  74.00    -0.29244    
-174.00  75.00    -0.20843    
-174.00  76.00    -0.98780E-01
-174.00  77.00     0.43998E-02
-174.00  78.00     0.74195E-01
-174.00  79.00     0.97667E-01
-174.00  80.00     0.79162E-01
-174.00  81.00     0.37430E-01
-174.00  82.00    -0.21455E-02
-174.00  83.00    -0.15442E-01
-174.00  84.00     0.11166E-01
-174.00  85.00     0.81226E-01
-174.00  86.00     0.17348    
-174.00  87.00     0.26377    
-174.00  88.00     0.32402    
-174.00  89.00     0.33390    
-173.00 -89.00    -0.11170    
-173.00 -88.00    -0.29261    
-173.00 -87.00    -0.44177    
-173.00 -86.00    -0.55197    
-173.00 -85.00    -0.63147    
-173.00 -84.00    -0.69600    
-173.00 -83.00    -0.76103    
-173.00 -82.00    -0.83400    
-173.00 -81.00    -0.91274    
-173.00 -80.00    -0.98218    
-173.00 -79.00     -1.0212    
-173.00 -78.00     -1.0119    
-173.00 -77.00    -0.94574    
-173.00 -76.00    -0.83305    
-173.00 -75.00    -0.69949    
-173.00 -74.00    -0.58205    
-173.00 -73.00    -0.52223    
-173.00 -72.00    -0.54987    
-173.00 -71.00    -0.67547    
-173.00 -70.00    -0.88665    
-173.00 -69.00     -1.1487    
-173.00 -68.00     -1.4132    
-173.00 -67.00     -1.6300    
-173.00 -66.00     -1.7595    
-173.00 -65.00     -1.7813    
-173.00 -64.00     -1.6968    
-173.00 -63.00     -1.5284    
-173.00 -62.00     -1.3099    
-173.00 -61.00     -1.0785    
-173.00 -60.00    -0.86410    
-173.00 -59.00    -0.68590    
-173.00 -58.00    -0.54990    
-173.00 -57.00    -0.45213    
-173.00 -56.00    -0.38402    
-173.00 -55.00    -0.33783    
-173.00 -54.00    -0.31021    
-173.00 -53.00    -0.30302    
-173.00 -52.00    -0.32068    
-173.00 -51.00    -0.36686    
-173.00 -50.00    -0.44050    
-173.00 -49.00    -0.53259    
-173.00 -48.00    -0.62763    
-173.00 -47.00    -0.70489    
-173.00 -46.00    -0.74301    
-173.00 -45.00    -0.72483    
-173.00 -44.00    -0.64105    
-173.00 -43.00    -0.49193    
-173.00 -42.00    -0.28798    
-173.00 -41.00    -0.47480E-01
-173.00 -40.00     0.20596    
-173.00 -39.00     0.44697    
-173.00 -38.00     0.65169    
-173.00 -37.00     0.80086    
-173.00 -36.00     0.88238    
-173.00 -35.00     0.89332    
-173.00 -34.00     0.84101    
-173.00 -33.00     0.74270    
-173.00 -32.00     0.62337    
-173.00 -31.00     0.51155    
-173.00 -30.00     0.43350    
-173.00 -29.00     0.40704    
-173.00 -28.00     0.43642    
-173.00 -27.00     0.51009    
-173.00 -26.00     0.60244    
-173.00 -25.00     0.67965    
-173.00 -24.00     0.70859    
-173.00 -23.00     0.66627    
-173.00 -22.00     0.54734    
-173.00 -21.00     0.36696    
-173.00 -20.00     0.15779    
-173.00 -19.00    -0.38284E-01
-173.00 -18.00    -0.18172    
-173.00 -17.00    -0.24662    
-173.00 -16.00    -0.22834    
-173.00 -15.00    -0.14485    
-173.00 -14.00    -0.31263E-01
-173.00 -13.00     0.71123E-01
-173.00 -12.00     0.12770    
-173.00 -11.00     0.12141    
-173.00 -10.00     0.58080E-01
-173.00  -9.00    -0.35781E-01
-173.00  -8.00    -0.12184    
-173.00  -7.00    -0.16282    
-173.00  -6.00    -0.13508    
-173.00  -5.00    -0.36771E-01
-173.00  -4.00     0.11131    
-173.00  -3.00     0.27237    
-173.00  -2.00     0.40575    
-173.00  -1.00     0.48033    
-173.00   0.00     0.48465    
-173.00   1.00     0.43030    
-173.00   2.00     0.34723    
-173.00   3.00     0.27249    
-173.00   4.00     0.23636    
-173.00   5.00     0.25064    
-173.00   6.00     0.30343    
-173.00   7.00     0.36263    
-173.00   8.00     0.38723    
-173.00   9.00     0.34287    
-173.00  10.00     0.21659    
-173.00  11.00     0.25229E-01
-173.00  12.00    -0.18555    
-173.00  13.00    -0.35231    
-173.00  14.00    -0.41173    
-173.00  15.00    -0.32029    
-173.00  16.00    -0.69358E-01
-173.00  17.00     0.30919    
-173.00  18.00     0.74895    
-173.00  19.00      1.1652    
-173.00  20.00      1.4768    
-173.00  21.00      1.6273    
-173.00  22.00      1.5989    
-173.00  23.00      1.4154    
-173.00  24.00      1.1338    
-173.00  25.00     0.82588    
-173.00  26.00     0.55774    
-173.00  27.00     0.37137    
-173.00  28.00     0.27532    
-173.00  29.00     0.24611    
-173.00  30.00     0.23994    
-173.00  31.00     0.21021    
-173.00  32.00     0.12534    
-173.00  33.00    -0.19264E-01
-173.00  34.00    -0.19873    
-173.00  35.00    -0.36659    
-173.00  36.00    -0.47030    
-173.00  37.00    -0.46945    
-173.00  38.00    -0.35070    
-173.00  39.00    -0.13451    
-173.00  40.00     0.12851    
-173.00  41.00     0.37079    
-173.00  42.00     0.52716    
-173.00  43.00     0.55309    
-173.00  44.00     0.43892    
-173.00  45.00     0.21312    
-173.00  46.00    -0.64496E-01
-173.00  47.00    -0.31875    
-173.00  48.00    -0.47911    
-173.00  49.00    -0.49911    
-173.00  50.00    -0.36818    
-173.00  51.00    -0.11474    
-173.00  52.00     0.20188    
-173.00  53.00     0.50697    
-173.00  54.00     0.72973    
-173.00  55.00     0.82170    
-173.00  56.00     0.76724    
-173.00  57.00     0.58633    
-173.00  58.00     0.32797    
-173.00  59.00     0.56604E-01
-173.00  60.00    -0.16616    
-173.00  61.00    -0.29568    
-173.00  62.00    -0.31500    
-173.00  63.00    -0.23674    
-173.00  64.00    -0.98173E-01
-173.00  65.00     0.51145E-01
-173.00  66.00     0.16328    
-173.00  67.00     0.20441    
-173.00  68.00     0.16408    
-173.00  69.00     0.55100E-01
-173.00  70.00    -0.89684E-01
-173.00  71.00    -0.22950    
-173.00  72.00    -0.32601    
-173.00  73.00    -0.35523    
-173.00  74.00    -0.31146    
-173.00  75.00    -0.21115    
-173.00  76.00    -0.83331E-01
-173.00  77.00     0.37972E-01
-173.00  78.00     0.12334    
-173.00  79.00     0.15755    
-173.00  80.00     0.14324    
-173.00  81.00     0.98731E-01
-173.00  82.00     0.50237E-01
-173.00  83.00     0.24242E-01
-173.00  84.00     0.36936E-01
-173.00  85.00     0.94454E-01
-173.00  86.00     0.17767    
-173.00  87.00     0.26319    
-173.00  88.00     0.32203    
-173.00  89.00     0.33277    
-172.00 -89.00    -0.11681    
-172.00 -88.00    -0.30443    
-172.00 -87.00    -0.46087    
-172.00 -86.00    -0.57703    
-172.00 -85.00    -0.65966    
-172.00 -84.00    -0.72283    
-172.00 -83.00    -0.78121    
-172.00 -82.00    -0.84285    
-172.00 -81.00    -0.90638    
-172.00 -80.00    -0.95894    
-172.00 -79.00    -0.98152    
-172.00 -78.00    -0.95829    
-172.00 -77.00    -0.88214    
-172.00 -76.00    -0.76321    
-172.00 -75.00    -0.62634    
-172.00 -74.00    -0.50702    
-172.00 -73.00    -0.44507    
-172.00 -72.00    -0.46956    
-172.00 -71.00    -0.59127    
-172.00 -70.00    -0.79945    
-172.00 -69.00     -1.0618    
-172.00 -68.00     -1.3327    
-172.00 -67.00     -1.5637    
-172.00 -66.00     -1.7151    
-172.00 -65.00     -1.7642    
-172.00 -64.00     -1.7082    
-172.00 -63.00     -1.5639    
-172.00 -62.00     -1.3601    
-172.00 -61.00     -1.1306    
-172.00 -60.00    -0.90525    
-172.00 -59.00    -0.70651    
-172.00 -58.00    -0.54660    
-172.00 -57.00    -0.42919    
-172.00 -56.00    -0.35278    
-172.00 -55.00    -0.31400    
-172.00 -54.00    -0.30978    
-172.00 -53.00    -0.33779    
-172.00 -52.00    -0.39436    
-172.00 -51.00    -0.47351    
-172.00 -50.00    -0.56502    
-172.00 -49.00    -0.65378    
-172.00 -48.00    -0.72265    
-172.00 -47.00    -0.75427    
-172.00 -46.00    -0.73442    
-172.00 -45.00    -0.65520    
-172.00 -44.00    -0.51628    
-172.00 -43.00    -0.32434    
-172.00 -42.00    -0.92789E-01
-172.00 -41.00     0.16100    
-172.00 -40.00     0.41699    
-172.00 -39.00     0.65459    
-172.00 -38.00     0.85411    
-172.00 -37.00     0.99870    
-172.00 -36.00      1.0766    
-172.00 -35.00      1.0837    
-172.00 -34.00      1.0256    
-172.00 -33.00     0.91916    
-172.00 -32.00     0.79021    
-172.00 -31.00     0.67008    
-172.00 -30.00     0.58859    
-172.00 -29.00     0.56645    
-172.00 -28.00     0.60854    
-172.00 -27.00     0.70073    
-172.00 -26.00     0.81158    
-172.00 -25.00     0.89940    
-172.00 -24.00     0.92313    
-172.00 -23.00     0.85431    
-172.00 -22.00     0.68651    
-172.00 -21.00     0.43915    
-172.00 -20.00     0.15414    
-172.00 -19.00    -0.11432    
-172.00 -18.00    -0.31399    
-172.00 -17.00    -0.40876    
-172.00 -16.00    -0.38865    
-172.00 -15.00    -0.27218    
-172.00 -14.00    -0.10055    
-172.00 -13.00     0.74879E-01
-172.00 -12.00     0.20792    
-172.00 -11.00     0.27084    
-172.00 -10.00     0.26152    
-172.00  -9.00     0.20222    
-172.00  -8.00     0.13056    
-172.00  -7.00     0.85786E-01
-172.00  -6.00     0.94981E-01
-172.00  -5.00     0.16400    
-172.00  -4.00     0.27604    
-172.00  -3.00     0.39833    
-172.00  -2.00     0.49453    
-172.00  -1.00     0.53837    
-172.00   0.00     0.52357    
-172.00   1.00     0.46640    
-172.00   2.00     0.39972    
-172.00   3.00     0.36043    
-172.00   4.00     0.37455    
-172.00   5.00     0.44560    
-172.00   6.00     0.55047    
-172.00   7.00     0.64508    
-172.00   8.00     0.67842    
-172.00   9.00     0.61071    
-172.00  10.00     0.42973    
-172.00  11.00     0.15952    
-172.00  12.00    -0.14211    
-172.00  13.00    -0.39726    
-172.00  14.00    -0.52923    
-172.00  15.00    -0.48521    
-172.00  16.00    -0.25330    
-172.00  17.00     0.13146    
-172.00  18.00     0.59446    
-172.00  19.00      1.0403    
-172.00  20.00      1.3775    
-172.00  21.00      1.5428    
-172.00  22.00      1.5159    
-172.00  23.00      1.3233    
-172.00  24.00      1.0279    
-172.00  25.00     0.70905    
-172.00  26.00     0.43901    
-172.00  27.00     0.26314    
-172.00  28.00     0.18951    
-172.00  29.00     0.19075    
-172.00  30.00     0.21697    
-172.00  31.00     0.21526    
-172.00  32.00     0.14911    
-172.00  33.00     0.11627E-01
-172.00  34.00    -0.17173    
-172.00  35.00    -0.35159    
-172.00  36.00    -0.47129    
-172.00  37.00    -0.48643    
-172.00  38.00    -0.38078    
-172.00  39.00    -0.17358    
-172.00  40.00     0.84202E-01
-172.00  41.00     0.32370    
-172.00  42.00     0.47812    
-172.00  43.00     0.50176    
-172.00  44.00     0.38449    
-172.00  45.00     0.15506    
-172.00  46.00    -0.12615    
-172.00  47.00    -0.38343    
-172.00  48.00    -0.54628    
-172.00  49.00    -0.56875    
-172.00  50.00    -0.44130    
-172.00  51.00    -0.19340    
-172.00  52.00     0.11490    
-172.00  53.00     0.40890    
-172.00  54.00     0.61852    
-172.00  55.00     0.69680    
-172.00  56.00     0.62976    
-172.00  57.00     0.43897    
-172.00  58.00     0.17464    
-172.00  59.00    -0.98407E-01
-172.00  60.00    -0.31853    
-172.00  61.00    -0.44181    
-172.00  62.00    -0.45207    
-172.00  63.00    -0.36283    
-172.00  64.00    -0.21227    
-172.00  65.00    -0.50540E-01
-172.00  66.00     0.73686E-01
-172.00  67.00     0.12614    
-172.00  68.00     0.95950E-01
-172.00  69.00    -0.42117E-02
-172.00  70.00    -0.14119    
-172.00  71.00    -0.27344    
-172.00  72.00    -0.36178    
-172.00  73.00    -0.38098    
-172.00  74.00    -0.32463    
-172.00  75.00    -0.20912    
-172.00  76.00    -0.64298E-01
-172.00  77.00     0.74032E-01
-172.00  78.00     0.17408    
-172.00  79.00     0.21841    
-172.00  80.00     0.20796    
-172.00  81.00     0.16050    
-172.00  82.00     0.10302    
-172.00  83.00     0.64325E-01
-172.00  84.00     0.63097E-01
-172.00  85.00     0.10786    
-172.00  86.00     0.18193    
-172.00  87.00     0.26260    
-172.00  88.00     0.32001    
-172.00  89.00     0.33160    
-171.00 -89.00    -0.12187    
-171.00 -88.00    -0.31612    
-171.00 -87.00    -0.47977    
-171.00 -86.00    -0.60182    
-171.00 -85.00    -0.68751    
-171.00 -84.00    -0.74922    
-171.00 -83.00    -0.80080    
-171.00 -82.00    -0.85106    
-171.00 -81.00    -0.89945    
-171.00 -80.00    -0.93533    
-171.00 -79.00    -0.94194    
-171.00 -78.00    -0.90538    
-171.00 -77.00    -0.81976    
-171.00 -76.00    -0.69491    
-171.00 -75.00    -0.55456    
-171.00 -74.00    -0.43248    
-171.00 -73.00    -0.36673    
-171.00 -72.00    -0.38562    
-171.00 -71.00    -0.50037    
-171.00 -70.00    -0.70224    
-171.00 -69.00    -0.96186    
-171.00 -68.00     -1.2366    
-171.00 -67.00     -1.4801    
-171.00 -66.00     -1.6530    
-171.00 -65.00     -1.7299    
-171.00 -64.00     -1.7036    
-171.00 -63.00     -1.5851    
-171.00 -62.00     -1.3976    
-171.00 -61.00     -1.1711    
-171.00 -60.00    -0.93512    
-171.00 -59.00    -0.71518    
-171.00 -58.00    -0.52967    
-171.00 -57.00    -0.38999    
-171.00 -56.00    -0.30196    
-171.00 -55.00    -0.26680    
-171.00 -54.00    -0.28214    
-171.00 -53.00    -0.34181    
-171.00 -52.00    -0.43457    
-171.00 -51.00    -0.54520    
-171.00 -50.00    -0.65483    
-171.00 -49.00    -0.74272    
-171.00 -48.00    -0.79037    
-171.00 -47.00    -0.78402    
-171.00 -46.00    -0.71668    
-171.00 -45.00    -0.58957    
-171.00 -44.00    -0.41096    
-171.00 -43.00    -0.19353    
-171.00 -42.00     0.47111E-01
-171.00 -41.00     0.29517    
-171.00 -40.00     0.53506    
-171.00 -39.00     0.75177    
-171.00 -38.00     0.93063    
-171.00 -37.00      1.0579    
-171.00 -36.00      1.1227    
-171.00 -35.00      1.1201    
-171.00 -34.00      1.0542    
-171.00 -33.00     0.94091    
-171.00 -32.00     0.80689    
-171.00 -31.00     0.68577    
-171.00 -30.00     0.61059    
-171.00 -29.00     0.60471    
-171.00 -28.00     0.67370    
-171.00 -27.00     0.80101    
-171.00 -26.00     0.94959    
-171.00 -25.00      1.0699    
-171.00 -24.00      1.1127    
-171.00 -23.00      1.0430    
-171.00 -22.00     0.85209    
-171.00 -21.00     0.56164    
-171.00 -20.00     0.22075    
-171.00 -19.00    -0.10587    
-171.00 -18.00    -0.35452    
-171.00 -17.00    -0.47924    
-171.00 -16.00    -0.46401    
-171.00 -15.00    -0.32636    
-171.00 -14.00    -0.11147    
-171.00 -13.00     0.12146    
-171.00 -12.00     0.31648    
-171.00 -11.00     0.43618    
-171.00 -10.00     0.47063    
-171.00  -9.00     0.43705    
-171.00  -8.00     0.37103    
-171.00  -7.00     0.31234    
-171.00  -6.00     0.29047    
-171.00  -5.00     0.31486    
-171.00  -4.00     0.37313    
-171.00  -3.00     0.43762    
-171.00  -2.00     0.47781    
-171.00  -1.00     0.47379    
-171.00   0.00     0.42562    
-171.00   1.00     0.35497    
-171.00   2.00     0.29779    
-171.00   3.00     0.29064    
-171.00   4.00     0.35512    
-171.00   5.00     0.48642    
-171.00   6.00     0.65044    
-171.00   7.00     0.79159    
-171.00   8.00     0.84919    
-171.00   9.00     0.77796    
-171.00  10.00     0.56559    
-171.00  11.00     0.24152    
-171.00  12.00    -0.12684    
-171.00  13.00    -0.45012    
-171.00  14.00    -0.64104    
-171.00  15.00    -0.63939    
-171.00  16.00    -0.43057    
-171.00  17.00    -0.51587E-01
-171.00  18.00     0.41741    
-171.00  19.00     0.87401    
-171.00  20.00      1.2207    
-171.00  21.00      1.3904    
-171.00  22.00      1.3629    
-171.00  23.00      1.1676    
-171.00  24.00     0.87240    
-171.00  25.00     0.56123    
-171.00  26.00     0.30943    
-171.00  27.00     0.16248    
-171.00  28.00     0.12549    
-171.00  29.00     0.16582    
-171.00  30.00     0.22743    
-171.00  31.00     0.25199    
-171.00  32.00     0.19968    
-171.00  33.00     0.62990E-01
-171.00  34.00    -0.13061    
-171.00  35.00    -0.32793    
-171.00  36.00    -0.46787    
-171.00  37.00    -0.50205    
-171.00  38.00    -0.41162    
-171.00  39.00    -0.21476    
-171.00  40.00     0.37313E-01
-171.00  41.00     0.27464    
-171.00  42.00     0.42908    
-171.00  43.00     0.45400    
-171.00  44.00     0.33868    
-171.00  45.00     0.11165    
-171.00  46.00    -0.16694    
-171.00  47.00    -0.42185    
-171.00  48.00    -0.58351    
-171.00  49.00    -0.60699    
-171.00  50.00    -0.48386    
-171.00  51.00    -0.24414    
-171.00  52.00     0.52346E-01
-171.00  53.00     0.33194    
-171.00  54.00     0.52633    
-171.00  55.00     0.59062    
-171.00  56.00     0.51261    
-171.00  57.00     0.31512    
-171.00  58.00     0.48703E-01
-171.00  59.00    -0.22239    
-171.00  60.00    -0.43735    
-171.00  61.00    -0.55361    
-171.00  62.00    -0.55590    
-171.00  63.00    -0.45849    
-171.00  64.00    -0.29982    
-171.00  65.00    -0.13003    
-171.00  66.00     0.21706E-02
-171.00  67.00     0.62514E-01
-171.00  68.00     0.39962E-01
-171.00  69.00    -0.53003E-01
-171.00  70.00    -0.18317    
-171.00  71.00    -0.30854    
-171.00  72.00    -0.38939    
-171.00  73.00    -0.39942    
-171.00  74.00    -0.33161    
-171.00  75.00    -0.20218    
-171.00  76.00    -0.41700E-01
-171.00  77.00     0.11244    
-171.00  78.00     0.22619    
-171.00  79.00     0.28000    
-171.00  80.00     0.27304    
-171.00  81.00     0.22247    
-171.00  82.00     0.15599    
-171.00  83.00     0.10463    
-171.00  84.00     0.89519E-01
-171.00  85.00     0.12139    
-171.00  86.00     0.18625    
-171.00  87.00     0.26198    
-171.00  88.00     0.31795    
-171.00  89.00     0.33041    
-170.00 -89.00    -0.12686    
-170.00 -88.00    -0.32769    
-170.00 -87.00    -0.49847    
-170.00 -86.00    -0.62633    
-170.00 -85.00    -0.71498    
-170.00 -84.00    -0.77516    
-170.00 -83.00    -0.81983    
-170.00 -82.00    -0.85871    
-170.00 -81.00    -0.89209    
-170.00 -80.00    -0.91162    
-170.00 -79.00    -0.90283    
-170.00 -78.00    -0.85364    
-170.00 -77.00    -0.75927    
-170.00 -76.00    -0.62900    
-170.00 -75.00    -0.48520    
-170.00 -74.00    -0.35974    
-170.00 -73.00    -0.28874    
-170.00 -72.00    -0.29981    
-170.00 -71.00    -0.40465    
-170.00 -70.00    -0.59694    
-170.00 -69.00    -0.85052    
-170.00 -68.00     -1.1263    
-170.00 -67.00     -1.3804    
-170.00 -66.00     -1.5736    
-170.00 -65.00     -1.6781    
-170.00 -64.00     -1.6826    
-170.00 -63.00     -1.5912    
-170.00 -62.00     -1.4217    
-170.00 -61.00     -1.1998    
-170.00 -60.00    -0.95410    
-170.00 -59.00    -0.71310    
-170.00 -58.00    -0.50103    
-170.00 -57.00    -0.33700    
-170.00 -56.00    -0.23416    
-170.00 -55.00    -0.19861    
-170.00 -54.00    -0.22897    
-170.00 -53.00    -0.31579    
-170.00 -52.00    -0.44091    
-170.00 -51.00    -0.58061    
-170.00 -50.00    -0.70798    
-170.00 -49.00    -0.79735    
-170.00 -48.00    -0.82924    
-170.00 -47.00    -0.79367    
-170.00 -46.00    -0.69090    
-170.00 -45.00    -0.53096    
-170.00 -44.00    -0.33020    
-170.00 -43.00    -0.10673    
-170.00 -42.00     0.12247    
-170.00 -41.00     0.34406    
-170.00 -40.00     0.54778    
-170.00 -39.00     0.72516    
-170.00 -38.00     0.86738    
-170.00 -37.00     0.96459    
-170.00 -36.00      1.0072    
-170.00 -35.00     0.98967    
-170.00 -34.00     0.91450    
-170.00 -33.00     0.79621    
-170.00 -32.00     0.66158    
-170.00 -31.00     0.54585    
-170.00 -30.00     0.48475    
-170.00 -29.00     0.50417    
-170.00 -28.00     0.61064    
-170.00 -27.00     0.78587    
-170.00 -26.00     0.98811    
-170.00 -25.00      1.1608    
-170.00 -24.00      1.2466    
-170.00 -23.00      1.2039    
-170.00 -22.00      1.0198    
-170.00 -21.00     0.71624    
-170.00 -20.00     0.34658    
-170.00 -19.00    -0.16940E-01
-170.00 -18.00    -0.30155    
-170.00 -17.00    -0.45290    
-170.00 -16.00    -0.44901    
-170.00 -15.00    -0.30516    
-170.00 -14.00    -0.68165E-01
-170.00 -13.00     0.19794    
-170.00 -12.00     0.43040    
-170.00 -11.00     0.58463    
-170.00 -10.00     0.64434    
-170.00  -9.00     0.62218    
-170.00  -8.00     0.55119    
-170.00  -7.00     0.47058    
-170.00  -6.00     0.41092    
-170.00  -5.00     0.38411    
-170.00  -4.00     0.38145    
-170.00  -3.00     0.38013    
-170.00  -2.00     0.35553    
-170.00  -1.00     0.29436    
-170.00   0.00     0.20333    
-170.00   1.00     0.10972    
-170.00   2.00     0.52854E-01
-170.00   3.00     0.69410E-01
-170.00   4.00     0.17736    
-170.00   5.00     0.36482    
-170.00   6.00     0.58835    
-170.00   7.00     0.78247    
-170.00   8.00     0.87816    
-170.00   9.00     0.82501    
-170.00  10.00     0.60974    
-170.00  11.00     0.26492    
-170.00  12.00    -0.13596    
-170.00  13.00    -0.49619    
-170.00  14.00    -0.72184    
-170.00  15.00    -0.74834    
-170.00  16.00    -0.55966    
-170.00  17.00    -0.19409    
-170.00  18.00     0.26531    
-170.00  19.00     0.71314    
-170.00  20.00      1.0502    
-170.00  21.00      1.2098    
-170.00  22.00      1.1745    
-170.00  23.00     0.97775    
-170.00  24.00     0.69109    
-170.00  25.00     0.40110    
-170.00  26.00     0.18293    
-170.00  27.00     0.79015E-01
-170.00  28.00     0.89037E-01
-170.00  29.00     0.17377    
-170.00  30.00     0.27097    
-170.00  31.00     0.31793    
-170.00  32.00     0.27311    
-170.00  33.00     0.13015    
-170.00  34.00    -0.80052E-01
-170.00  35.00    -0.29963    
-170.00  36.00    -0.46279    
-170.00  37.00    -0.51742    
-170.00  38.00    -0.44239    
-170.00  39.00    -0.25516    
-170.00  40.00    -0.74154E-02
-170.00  41.00     0.22993    
-170.00  42.00     0.38750    
-170.00  43.00     0.41790    
-170.00  44.00     0.30961    
-170.00  45.00     0.90526E-01
-170.00  46.00    -0.18018    
-170.00  47.00    -0.42855    
-170.00  48.00    -0.58668    
-170.00  49.00    -0.61100    
-170.00  50.00    -0.49409    
-170.00  51.00    -0.26589    
-170.00  52.00     0.14893E-01
-170.00  53.00     0.27676    
-170.00  54.00     0.45410    
-170.00  55.00     0.50449    
-170.00  56.00     0.41757    
-170.00  57.00     0.21690    
-170.00  58.00    -0.47496E-01
-170.00  59.00    -0.31295    
-170.00  60.00    -0.52034    
-170.00  61.00    -0.62895    
-170.00  62.00    -0.62463    
-170.00  63.00    -0.52203    
-170.00  64.00    -0.35935    
-170.00  65.00    -0.18595    
-170.00  66.00    -0.49920E-01
-170.00  67.00     0.14851E-01
-170.00  68.00    -0.26199E-02
-170.00  69.00    -0.90093E-01
-170.00  70.00    -0.21457    
-170.00  71.00    -0.33393    
-170.00  72.00    -0.40816    
-170.00  73.00    -0.41009    
-170.00  74.00    -0.33215    
-170.00  75.00    -0.19028    
-170.00  76.00    -0.15620E-01
-170.00  77.00     0.15300    
-170.00  78.00     0.27943    
-170.00  79.00     0.34202    
-170.00  80.00     0.33819    
-170.00  81.00     0.28440    
-170.00  82.00     0.20893    
-170.00  83.00     0.14499    
-170.00  84.00     0.11607    
-170.00  85.00     0.13495    
-170.00  86.00     0.19059    
-170.00  87.00     0.26133    
-170.00  88.00     0.31584    
-170.00  89.00     0.32919    
-169.00 -89.00    -0.13178    
-169.00 -88.00    -0.33913    
-169.00 -87.00    -0.51694    
-169.00 -86.00    -0.65053    
-169.00 -85.00    -0.74206    
-169.00 -84.00    -0.80064    
-169.00 -83.00    -0.83834    
-169.00 -82.00    -0.86588    
-169.00 -81.00    -0.88446    
-169.00 -80.00    -0.88804    
-169.00 -79.00    -0.86455    
-169.00 -78.00    -0.80357    
-169.00 -77.00    -0.70130    
-169.00 -76.00    -0.56628    
-169.00 -75.00    -0.41932    
-169.00 -74.00    -0.29010    
-169.00 -73.00    -0.21267    
-169.00 -72.00    -0.21394    
-169.00 -71.00    -0.30615    
-169.00 -70.00    -0.48567    
-169.00 -69.00    -0.72993    
-169.00 -68.00     -1.0037    
-169.00 -67.00     -1.2659    
-169.00 -66.00     -1.4779    
-169.00 -65.00     -1.6096    
-169.00 -64.00     -1.6452    
-169.00 -63.00     -1.5823    
-169.00 -62.00     -1.4326    
-169.00 -61.00     -1.2172    
-169.00 -60.00    -0.96379    
-169.00 -59.00    -0.70296    
-169.00 -58.00    -0.46458    
-169.00 -57.00    -0.27521    
-169.00 -56.00    -0.15523    
-169.00 -55.00    -0.11570    
-169.00 -54.00    -0.15661    
-169.00 -53.00    -0.26575    
-169.00 -52.00    -0.41888    
-169.00 -51.00    -0.58454    
-169.00 -50.00    -0.72864    
-169.00 -49.00    -0.82126    
-169.00 -48.00    -0.84241    
-169.00 -47.00    -0.78598    
-169.00 -46.00    -0.65939    
-169.00 -45.00    -0.48106    
-169.00 -44.00    -0.27478    
-169.00 -43.00    -0.63403E-01
-169.00 -42.00     0.13558    
-169.00 -41.00     0.31207    
-169.00 -40.00     0.46210    
-169.00 -39.00     0.58452    
-169.00 -38.00     0.67713    
-169.00 -37.00     0.73454    
-169.00 -36.00     0.74893    
-169.00 -35.00     0.71391    
-169.00 -34.00     0.63005    
-169.00 -33.00     0.50973    
-169.00 -32.00     0.37875    
-169.00 -31.00     0.27299    
-169.00 -30.00     0.23015    
-169.00 -29.00     0.27850    
-169.00 -28.00     0.42604    
-169.00 -27.00     0.65399    
-169.00 -26.00     0.91750    
-169.00 -25.00      1.1545    
-169.00 -24.00      1.3011    
-169.00 -23.00      1.3088    
-169.00 -22.00      1.1598    
-169.00 -21.00     0.87368    
-169.00 -20.00     0.50493    
-169.00 -19.00     0.12962    
-169.00 -18.00    -0.17386    
-169.00 -17.00    -0.34516    
-169.00 -16.00    -0.35732    
-169.00 -15.00    -0.22258    
-169.00 -14.00     0.12918E-01
-169.00 -13.00     0.28367    
-169.00 -12.00     0.52394    
-169.00 -11.00     0.68545    
-169.00 -10.00     0.74827    
-169.00  -9.00     0.72193    
-169.00  -8.00     0.63720    
-169.00  -7.00     0.53192    
-169.00  -6.00     0.43627    
-169.00  -5.00     0.36286    
-169.00  -4.00     0.30491    
-169.00  -3.00     0.24294    
-169.00  -2.00     0.15702    
-169.00  -1.00     0.39575E-01
-169.00   0.00    -0.96636E-01
-169.00   1.00    -0.21901    
-169.00   2.00    -0.28461    
-169.00   3.00    -0.25582    
-169.00   4.00    -0.11675    
-169.00   5.00     0.11588    
-169.00   6.00     0.39196    
-169.00   7.00     0.63884    
-169.00   8.00     0.78124    
-169.00   9.00     0.76453    
-169.00  10.00     0.57380    
-169.00  11.00     0.24228    
-169.00  12.00    -0.15427    
-169.00  13.00    -0.51653    
-169.00  14.00    -0.74858    
-169.00  15.00    -0.78504    
-169.00  16.00    -0.61031    
-169.00  17.00    -0.26364    
-169.00  18.00     0.17143    
-169.00  19.00     0.59039    
-169.00  20.00     0.89689    
-169.00  21.00      1.0290    
-169.00  22.00     0.97470    
-169.00  23.00     0.77274    
-169.00  24.00     0.49807    
-169.00  25.00     0.23759    
-169.00  26.00     0.63445E-01
-169.00  27.00     0.12132E-01
-169.00  28.00     0.75668E-01
-169.00  29.00     0.20710    
-169.00  30.00     0.33804    
-169.00  31.00     0.40241    
-169.00  32.00     0.35854    
-169.00  33.00     0.20285    
-169.00  34.00    -0.29062E-01
-169.00  35.00    -0.27401    
-169.00  36.00    -0.46143    
-169.00  37.00    -0.53583    
-169.00  38.00    -0.47439    
-169.00  39.00    -0.29434    
-169.00  40.00    -0.48040E-01
-169.00  41.00     0.19258    
-169.00  42.00     0.35705    
-169.00  43.00     0.39727    
-169.00  44.00     0.30082    
-169.00  45.00     0.94500E-01
-169.00  46.00    -0.16404    
-169.00  47.00    -0.40287    
-169.00  48.00    -0.55623    
-169.00  49.00    -0.58217    
-169.00  50.00    -0.47403    
-169.00  51.00    -0.26099    
-169.00  52.00     0.31165E-03
-169.00  53.00     0.24153    
-169.00  54.00     0.40058    
-169.00  55.00     0.43786    
-169.00  56.00     0.34470    
-169.00  57.00     0.14484    
-169.00  58.00    -0.11316    
-169.00  59.00    -0.36917    
-169.00  60.00    -0.56664    
-169.00  61.00    -0.66712    
-169.00  62.00    -0.65764    
-169.00  63.00    -0.55293    
-169.00  64.00    -0.39029    
-169.00  65.00    -0.21765    
-169.00  66.00    -0.81849E-01
-169.00  67.00    -0.16001E-01
-169.00  68.00    -0.30880E-01
-169.00  69.00    -0.11457    
-169.00  70.00    -0.23455    
-169.00  71.00    -0.34891    
-169.00  72.00    -0.41757    
-169.00  73.00    -0.41266    
-169.00  74.00    -0.32612    
-169.00  75.00    -0.17344    
-169.00  76.00     0.13781E-01
-169.00  77.00     0.19547    
-169.00  78.00     0.33348    
-169.00  79.00     0.40417    
-169.00  80.00     0.40311    
-169.00  81.00     0.34599    
-169.00  82.00     0.26161    
-169.00  83.00     0.18521    
-169.00  84.00     0.14260    
-169.00  85.00     0.14848    
-169.00  86.00     0.19490    
-169.00  87.00     0.26062    
-169.00  88.00     0.31370    
-169.00  89.00     0.32795    
-168.00 -89.00    -0.13664    
-168.00 -88.00    -0.35042    
-168.00 -87.00    -0.53517    
-168.00 -86.00    -0.67440    
-168.00 -85.00    -0.76871    
-168.00 -84.00    -0.82563    
-168.00 -83.00    -0.85636    
-168.00 -82.00    -0.87263    
-168.00 -81.00    -0.87669    
-168.00 -80.00    -0.86483    
-168.00 -79.00    -0.82742    
-168.00 -78.00    -0.75562    
-168.00 -77.00    -0.64645    
-168.00 -76.00    -0.50756    
-168.00 -75.00    -0.35793    
-168.00 -74.00    -0.22484    
-168.00 -73.00    -0.14013    
-168.00 -72.00    -0.12990    
-168.00 -71.00    -0.20701    
-168.00 -70.00    -0.37074    
-168.00 -69.00    -0.60241    
-168.00 -68.00    -0.87102    
-168.00 -67.00     -1.1387    
-168.00 -66.00     -1.3674    
-168.00 -65.00     -1.5252    
-168.00 -64.00     -1.5920    
-168.00 -63.00     -1.5588    
-168.00 -62.00     -1.4311    
-168.00 -61.00     -1.2251    
-168.00 -60.00    -0.96677    
-168.00 -59.00    -0.68871    
-168.00 -58.00    -0.42581    
-168.00 -57.00    -0.21162    
-168.00 -56.00    -0.73512E-01
-168.00 -55.00    -0.27502E-01
-168.00 -54.00    -0.75165E-01
-168.00 -53.00    -0.20211    
-168.00 -52.00    -0.37879    
-168.00 -51.00    -0.56695    
-168.00 -50.00    -0.72613    
-168.00 -49.00    -0.82286    
-168.00 -48.00    -0.83703    
-168.00 -47.00    -0.76644    
-168.00 -46.00    -0.62546    
-168.00 -45.00    -0.44036    
-168.00 -44.00    -0.24167    
-168.00 -43.00    -0.56245E-01
-168.00 -42.00     0.98646E-01
-168.00 -41.00     0.21691    
-168.00 -40.00     0.30150    
-168.00 -39.00     0.35925    
-168.00 -38.00     0.39514    
-168.00 -37.00     0.40861    
-168.00 -36.00     0.39366    
-168.00 -35.00     0.34292    
-168.00 -34.00     0.25418    
-168.00 -33.00     0.13661    
-168.00 -32.00     0.13658E-01
-168.00 -31.00    -0.79481E-01
-168.00 -30.00    -0.10407    
-168.00 -29.00    -0.29693E-01
-168.00 -28.00     0.15384    
-168.00 -27.00     0.42887    
-168.00 -26.00     0.74974    
-168.00 -25.00      1.0515    
-168.00 -24.00      1.2653    
-168.00 -23.00      1.3374    
-168.00 -22.00      1.2442    
-168.00 -21.00      1.0014    
-168.00 -20.00     0.66123    
-168.00 -19.00     0.29945    
-168.00 -18.00    -0.38652E-02
-168.00 -17.00    -0.18558    
-168.00 -16.00    -0.21543    
-168.00 -15.00    -0.10251    
-168.00 -14.00     0.10966    
-168.00 -13.00     0.35748    
-168.00 -12.00     0.57631    
-168.00 -11.00     0.71829    
-168.00 -10.00     0.76319    
-168.00  -9.00     0.71966    
-168.00  -8.00     0.61698    
-168.00  -7.00     0.49113    
-168.00  -6.00     0.37043    
-168.00  -5.00     0.26602    
-168.00  -4.00     0.17064    
-168.00  -3.00     0.65747E-01
-168.00  -2.00    -0.66061E-01
-168.00  -1.00    -0.22847    
-168.00   0.00    -0.40403    
-168.00   1.00    -0.55555    
-168.00   2.00    -0.63650    
-168.00   3.00    -0.60744    
-168.00   4.00    -0.45266    
-168.00   5.00    -0.19102    
-168.00   6.00     0.12396    
-168.00   7.00     0.41572    
-168.00   8.00     0.60541    
-168.00   9.00     0.63559    
-168.00  10.00     0.48940    
-168.00  11.00     0.19867    
-168.00  12.00    -0.16230    
-168.00  13.00    -0.49610    
-168.00  14.00    -0.70939    
-168.00  15.00    -0.73971    
-168.00  16.00    -0.57381    
-168.00  17.00    -0.25183    
-168.00  18.00     0.14428    
-168.00  19.00     0.51444    
-168.00  20.00     0.76934    
-168.00  21.00     0.85556    
-168.00  22.00     0.76956    
-168.00  23.00     0.55638    
-168.00  24.00     0.29386    
-168.00  25.00     0.67499E-01
-168.00  26.00    -0.56070E-01
-168.00  27.00    -0.48782E-01
-168.00  28.00     0.71869E-01
-168.00  29.00     0.25034    
-168.00  30.00     0.41233    
-168.00  31.00     0.48939    
-168.00  32.00     0.44116    
-168.00  33.00     0.26822    
-168.00  34.00     0.11815E-01
-168.00  35.00    -0.25914    
-168.00  36.00    -0.46952    
-168.00  37.00    -0.56101    
-168.00  38.00    -0.50976    
-168.00  39.00    -0.33328    
-168.00  40.00    -0.84863E-01
-168.00  41.00     0.16255    
-168.00  42.00     0.33756    
-168.00  43.00     0.39146    
-168.00  44.00     0.31091    
-168.00  45.00     0.12128    
-168.00  46.00    -0.12183    
-168.00  47.00    -0.34907    
-168.00  48.00    -0.49721    
-168.00  49.00    -0.52605    
-168.00  50.00    -0.42934    
-168.00  51.00    -0.23486    
-168.00  52.00     0.37644E-02
-168.00  53.00     0.22224    
-168.00  54.00     0.36267    
-168.00  55.00     0.38850    
-168.00  56.00     0.29253    
-168.00  57.00     0.97991E-01
-168.00  58.00    -0.14894    
-168.00  59.00    -0.39162    
-168.00  60.00    -0.57682    
-168.00  61.00    -0.66874    
-168.00  62.00    -0.65558    
-168.00  63.00    -0.55177    
-168.00  64.00    -0.39305    
-168.00  65.00    -0.22532    
-168.00  66.00    -0.93515E-01
-168.00  67.00    -0.29691E-01
-168.00  68.00    -0.44285E-01
-168.00  69.00    -0.12581    
-168.00  70.00    -0.24251    
-168.00  71.00    -0.35299    
-168.00  72.00    -0.41726    
-168.00  73.00    -0.40697    
-168.00  74.00    -0.31350    
-168.00  75.00    -0.15179    
-168.00  76.00     0.46270E-01
-168.00  77.00     0.23954    
-168.00  78.00     0.38803    
-168.00  79.00     0.46609    
-168.00  80.00     0.46748    
-168.00  81.00     0.40697    
-168.00  82.00     0.31379    
-168.00  83.00     0.22511    
-168.00  84.00     0.16897    
-168.00  85.00     0.16191    
-168.00  86.00     0.19915    
-168.00  87.00     0.25985    
-168.00  88.00     0.31151    
-168.00  89.00     0.32668    
-167.00 -89.00    -0.14142    
-167.00 -88.00    -0.36156    
-167.00 -87.00    -0.55313    
-167.00 -86.00    -0.69792    
-167.00 -85.00    -0.79491    
-167.00 -84.00    -0.85013    
-167.00 -83.00    -0.87390    
-167.00 -82.00    -0.87903    
-167.00 -81.00    -0.86893    
-167.00 -80.00    -0.84219    
-167.00 -79.00    -0.79174    
-167.00 -78.00    -0.71021    
-167.00 -77.00    -0.59528    
-167.00 -76.00    -0.45354    
-167.00 -75.00    -0.30197    
-167.00 -74.00    -0.16520    
-167.00 -73.00    -0.72664E-01
-167.00 -72.00    -0.49581E-01
-167.00 -71.00    -0.10948    
-167.00 -70.00    -0.25463    
-167.00 -69.00    -0.47053    
-167.00 -68.00    -0.73072    
-167.00 -67.00     -1.0008    
-167.00 -66.00     -1.2439    
-167.00 -65.00     -1.4266    
-167.00 -64.00     -1.5245    
-167.00 -63.00     -1.5221    
-167.00 -62.00     -1.4187    
-167.00 -61.00     -1.2254    
-167.00 -60.00    -0.96626    
-167.00 -59.00    -0.67505    
-167.00 -58.00    -0.39111    
-167.00 -57.00    -0.15443    
-167.00 -56.00     0.10896E-02
-167.00 -55.00     0.54638E-01
-167.00 -54.00     0.28692E-02
-167.00 -53.00    -0.13808    
-167.00 -52.00    -0.33420    
-167.00 -51.00    -0.54123    
-167.00 -50.00    -0.71325    
-167.00 -49.00    -0.81379    
-167.00 -48.00    -0.82298    
-167.00 -47.00    -0.74244    
-167.00 -46.00    -0.59310    
-167.00 -45.00    -0.40849    
-167.00 -44.00    -0.22518    
-167.00 -43.00    -0.73312E-01
-167.00 -42.00     0.30649E-01
-167.00 -41.00     0.85096E-01
-167.00 -40.00     0.10033    
-167.00 -39.00     0.91490E-01
-167.00 -38.00     0.70955E-01
-167.00 -37.00     0.43134E-01
-167.00 -36.00     0.37312E-02
-167.00 -35.00    -0.56076E-01
-167.00 -34.00    -0.14220    
-167.00 -33.00    -0.25002    
-167.00 -32.00    -0.36003    
-167.00 -31.00    -0.43933    
-167.00 -30.00    -0.44930    
-167.00 -29.00    -0.35775    
-167.00 -28.00    -0.15159    
-167.00 -27.00     0.15447    
-167.00 -26.00     0.51670    
-167.00 -25.00     0.87030    
-167.00 -24.00      1.1447    
-167.00 -23.00      1.2823    
-167.00 -22.00      1.2548    
-167.00 -21.00      1.0724    
-167.00 -20.00     0.78229    
-167.00 -19.00     0.45624    
-167.00 -18.00     0.17173    
-167.00 -17.00    -0.88706E-02
-167.00 -16.00    -0.54322E-01
-167.00 -15.00     0.28949E-01
-167.00 -14.00     0.20138    
-167.00 -13.00     0.40413    
-167.00 -12.00     0.57757    
-167.00 -11.00     0.67825    
-167.00 -10.00     0.68922    
-167.00  -9.00     0.62066    
-167.00  -8.00     0.50153    
-167.00  -7.00     0.36573    
-167.00  -6.00     0.23828    
-167.00  -5.00     0.12670    
-167.00  -4.00     0.20656E-01
-167.00  -3.00    -0.10021    
-167.00  -2.00    -0.25340    
-167.00  -1.00    -0.44098    
-167.00   0.00    -0.64266    
-167.00   1.00    -0.81780    
-167.00   2.00    -0.91663    
-167.00   3.00    -0.89721    
-167.00   4.00    -0.74239    
-167.00   5.00    -0.47051    
-167.00   6.00    -0.13528    
-167.00   7.00     0.18623    
-167.00   8.00     0.41444    
-167.00   9.00     0.49090    
-167.00  10.00     0.39704    
-167.00  11.00     0.16186    
-167.00  12.00    -0.14467    
-167.00  13.00    -0.43086    
-167.00  14.00    -0.60980    
-167.00  15.00    -0.62505    
-167.00  16.00    -0.46749    
-167.00  17.00    -0.17810    
-167.00  18.00     0.16441    
-167.00  19.00     0.46737    
-167.00  20.00     0.65190    
-167.00  21.00     0.67622    
-167.00  22.00     0.54731    
-167.00  23.00     0.31741    
-167.00  24.00     0.66660E-01
-167.00  25.00    -0.12247    
-167.00  26.00    -0.19093    
-167.00  27.00    -0.12105    
-167.00  28.00     0.58817E-01
-167.00  29.00     0.28409    
-167.00  30.00     0.47491    
-167.00  31.00     0.56151    
-167.00  32.00     0.50605    
-167.00  33.00     0.31430    
-167.00  34.00     0.33722E-01
-167.00  35.00    -0.26106    
-167.00  36.00    -0.49079    
-167.00  37.00    -0.59509    
-167.00  38.00    -0.54975    
-167.00  39.00    -0.37303    
-167.00  40.00    -0.11931    
-167.00  41.00     0.13760    
-167.00  42.00     0.32577    
-167.00  43.00     0.39604    
-167.00  44.00     0.33422    
-167.00  45.00     0.16404    
-167.00  46.00    -0.61361E-01
-167.00  47.00    -0.27570    
-167.00  48.00    -0.41856    
-167.00  49.00    -0.45160    
-167.00  50.00    -0.36860    
-167.00  51.00    -0.19532    
-167.00  52.00     0.18470E-01
-167.00  53.00     0.21328    
-167.00  54.00     0.33591    
-167.00  55.00     0.35297    
-167.00  56.00     0.25839    
-167.00  57.00     0.74190E-01
-167.00  58.00    -0.15677    
-167.00  59.00    -0.38216    
-167.00  60.00    -0.55279    
-167.00  61.00    -0.63574    
-167.00  62.00    -0.62031    
-167.00  63.00    -0.52020    
-167.00  64.00    -0.36898    
-167.00  65.00    -0.20989    
-167.00  66.00    -0.85455E-01
-167.00  67.00    -0.26365E-01
-167.00  68.00    -0.42699E-01
-167.00  69.00    -0.12352    
-167.00  70.00    -0.23811    
-167.00  71.00    -0.34588    
-167.00  72.00    -0.40706    
-167.00  73.00    -0.39296    
-167.00  74.00    -0.29440    
-167.00  75.00    -0.12555    
-167.00  76.00     0.81539E-01
-167.00  77.00     0.28485    
-167.00  78.00     0.44269    
-167.00  79.00     0.52745    
-167.00  80.00     0.53099    
-167.00  81.00     0.46706    
-167.00  82.00     0.36524    
-167.00  83.00     0.26450    
-167.00  84.00     0.19503    
-167.00  85.00     0.17517    
-167.00  86.00     0.20332    
-167.00  87.00     0.25899    
-167.00  88.00     0.30927    
-167.00  89.00     0.32539    
-166.00 -89.00    -0.14614    
-166.00 -88.00    -0.37254    
-166.00 -87.00    -0.57081    
-166.00 -86.00    -0.72106    
-166.00 -85.00    -0.82064    
-166.00 -84.00    -0.87410    
-166.00 -83.00    -0.89099    
-166.00 -82.00    -0.88515    
-166.00 -81.00    -0.86128    
-166.00 -80.00    -0.82033    
-166.00 -79.00    -0.75780    
-166.00 -78.00    -0.66771    
-166.00 -77.00    -0.54827    
-166.00 -76.00    -0.40490    
-166.00 -75.00    -0.25234    
-166.00 -74.00    -0.11235    
-166.00 -73.00    -0.11811E-01
-166.00 -72.00     0.25128E-01
-166.00 -71.00    -0.15810E-01
-166.00 -70.00    -0.13988    
-166.00 -69.00    -0.33701    
-166.00 -68.00    -0.58555    
-166.00 -67.00    -0.85487    
-166.00 -66.00     -1.1099    
-166.00 -65.00     -1.3158    
-166.00 -64.00     -1.4441    
-166.00 -63.00     -1.4736    
-166.00 -62.00     -1.3971    
-166.00 -61.00     -1.2206    
-166.00 -60.00    -0.96574    
-166.00 -59.00    -0.66686    
-166.00 -58.00    -0.36705    
-166.00 -57.00    -0.11202    
-166.00 -56.00     0.58402E-01
-166.00 -55.00     0.11891    
-166.00 -54.00     0.64342E-01
-166.00 -53.00    -0.87808E-01
-166.00 -52.00    -0.29976    
-166.00 -51.00    -0.52209    
-166.00 -50.00    -0.70416    
-166.00 -49.00    -0.80701    
-166.00 -48.00    -0.81125    
-166.00 -47.00    -0.72209    
-166.00 -46.00    -0.56653    
-166.00 -45.00    -0.38470    
-166.00 -44.00    -0.21851    
-166.00 -43.00    -0.10081    
-166.00 -42.00    -0.46898E-01
-166.00 -41.00    -0.53690E-01
