 -38.00 -80.00     0.12660    
 -38.00 -79.00     0.18419    
 -38.00 -78.00     0.26159    
 -38.00 -77.00     0.35700    
 -38.00 -76.00     0.46567    
 -38.00 -75.00     0.57742    
 -38.00 -74.00     0.67776    
 -38.00 -73.00     0.74956    
 -38.00 -72.00     0.77461    
 -38.00 -71.00     0.74104    
 -38.00 -70.00     0.64621    
 -38.00 -69.00     0.50054    
 -38.00 -68.00     0.32674    
 -38.00 -67.00     0.15565    
 -38.00 -66.00     0.20087E-01
 -38.00 -65.00    -0.53312E-01
 -38.00 -64.00    -0.51345E-01
 -38.00 -63.00     0.22649E-01
 -38.00 -62.00     0.14953    
 -38.00 -61.00     0.29830    
 -38.00 -60.00     0.43499    
 -38.00 -59.00     0.53041    
 -38.00 -58.00     0.56750    
 -38.00 -57.00     0.54480    
 -38.00 -56.00     0.47573    
 -38.00 -55.00     0.38387    
 -38.00 -54.00     0.29590    
 -38.00 -53.00     0.23504    
 -38.00 -52.00     0.21518    
 -38.00 -51.00     0.23930    
 -38.00 -50.00     0.29992    
 -38.00 -49.00     0.38246    
 -38.00 -48.00     0.46975    
 -38.00 -47.00     0.54552    
 -38.00 -46.00     0.59671    
 -38.00 -45.00     0.61414    
 -38.00 -44.00     0.59217    
 -38.00 -43.00     0.52782    
 -38.00 -42.00     0.42114    
 -38.00 -41.00     0.27615    
 -38.00 -40.00     0.10238    
 -38.00 -39.00    -0.83815E-01
 -38.00 -38.00    -0.25973    
 -38.00 -37.00    -0.39909    
 -38.00 -36.00    -0.47715    
 -38.00 -35.00    -0.47702    
 -38.00 -34.00    -0.39537    
 -38.00 -33.00    -0.24552    
 -38.00 -32.00    -0.56330E-01
 -38.00 -31.00     0.13340    
 -38.00 -30.00     0.28401    
 -38.00 -29.00     0.36508    
 -38.00 -28.00     0.36372    
 -38.00 -27.00     0.28839    
 -38.00 -26.00     0.16681    
 -38.00 -25.00     0.38254E-01
 -38.00 -24.00    -0.57558E-01
 -38.00 -23.00    -0.91887E-01
 -38.00 -22.00    -0.55174E-01
 -38.00 -21.00     0.40519E-01
 -38.00 -20.00     0.16560    
 -38.00 -19.00     0.28239    
 -38.00 -18.00     0.35695    
 -38.00 -17.00     0.36969    
 -38.00 -16.00     0.32133    
 -38.00 -15.00     0.23247    
 -38.00 -14.00     0.13684    
 -38.00 -13.00     0.70553E-01
 -38.00 -12.00     0.60600E-01
 -38.00 -11.00     0.11643    
 -38.00 -10.00     0.22708    
 -38.00  -9.00     0.36484    
 -38.00  -8.00     0.49393    
 -38.00  -7.00     0.58164    
 -38.00  -6.00     0.60807    
 -38.00  -5.00     0.57170    
 -38.00  -4.00     0.48894    
 -38.00  -3.00     0.38827    
 -38.00  -2.00     0.30087    
 -38.00  -1.00     0.25101    
 -38.00   0.00     0.24922    
 -38.00   1.00     0.29028    
 -38.00   2.00     0.35633    
 -38.00   3.00     0.42384    
 -38.00   4.00     0.47174    
 -38.00   5.00     0.48797    
 -38.00   6.00     0.47238    
 -38.00   7.00     0.43521    
 -38.00   8.00     0.39203    
 -38.00   9.00     0.35731    
 -38.00  10.00     0.33897    
 -38.00  11.00     0.33590    
 -38.00  12.00     0.33939    
 -38.00  13.00     0.33761    
 -38.00  14.00     0.32137    
 -38.00  15.00     0.28885    
 -38.00  16.00     0.24732    
 -38.00  17.00     0.21112    
 -38.00  18.00     0.19636    
 -38.00  19.00     0.21443    
 -38.00  20.00     0.26654    
 -38.00  21.00     0.34155    
 -38.00  22.00     0.41808    
 -38.00  23.00     0.47050    
 -38.00  24.00     0.47693    
 -38.00  25.00     0.42662    
 -38.00  26.00     0.32417    
 -38.00  27.00     0.18912    
 -38.00  28.00     0.50706E-01
 -38.00  29.00    -0.60550E-01
 -38.00  30.00    -0.12189    
 -38.00  31.00    -0.12509    
 -38.00  32.00    -0.78870E-01
 -38.00  33.00    -0.61289E-02
 -38.00  34.00     0.63114E-01
 -38.00  35.00     0.10079    
 -38.00  36.00     0.89100E-01
 -38.00  37.00     0.25475E-01
 -38.00  38.00    -0.77137E-01
 -38.00  39.00    -0.19464    
 -38.00  40.00    -0.29920    
 -38.00  41.00    -0.36734    
 -38.00  42.00    -0.38613    
 -38.00  43.00    -0.35570    
 -38.00  44.00    -0.28780    
 -38.00  45.00    -0.20099    
 -38.00  46.00    -0.11424    
 -38.00  47.00    -0.41954E-01
 -38.00  48.00     0.94713E-02
 -38.00  49.00     0.41418E-01
 -38.00  50.00     0.59938E-01
 -38.00  51.00     0.71781E-01
 -38.00  52.00     0.80548E-01
 -38.00  53.00     0.85027E-01
 -38.00  54.00     0.80003E-01
 -38.00  55.00     0.59424E-01
 -38.00  56.00     0.20358E-01
 -38.00  57.00    -0.33333E-01
 -38.00  58.00    -0.90131E-01
 -38.00  59.00    -0.13268    
 -38.00  60.00    -0.14216    
 -38.00  61.00    -0.10439    
 -38.00  62.00    -0.15243E-01
 -38.00  63.00     0.11613    
 -38.00  64.00     0.26777    
 -38.00  65.00     0.40888    
 -38.00  66.00     0.50657    
 -38.00  67.00     0.53396    
 -38.00  68.00     0.47683    
 -38.00  69.00     0.33782    
 -38.00  70.00     0.13625    
 -38.00  71.00    -0.95088E-01
 -38.00  72.00    -0.31623    
 -38.00  73.00    -0.48996    
 -38.00  74.00    -0.58644    
 -38.00  75.00    -0.59016    
 -38.00  76.00    -0.50260    
 -38.00  77.00    -0.34014    
 -38.00  78.00    -0.13116    
 -38.00  79.00     0.89469E-01
 -38.00  80.00     0.28679    
 -38.00  81.00     0.43098    
 -38.00  82.00     0.50259    
 -38.00  83.00     0.49455    
 -38.00  84.00     0.41222    
 -38.00  85.00     0.27302    
 -38.00  86.00     0.10198    
 -38.00  87.00    -0.71708E-01
 -38.00  88.00    -0.22263    
 -38.00  89.00    -0.33113    
 -37.00 -89.00     0.22681    
 -37.00 -88.00     0.22036    
 -37.00 -87.00     0.19563    
 -37.00 -86.00     0.15849    
 -37.00 -85.00     0.11684    
 -37.00 -84.00     0.81605E-01
 -37.00 -83.00     0.61332E-01
 -37.00 -82.00     0.58293E-01
 -37.00 -81.00     0.77989E-01
 -37.00 -80.00     0.12034    
 -37.00 -79.00     0.18447    
 -37.00 -78.00     0.26868    
 -37.00 -77.00     0.37026    
 -37.00 -76.00     0.48377    
 -37.00 -75.00     0.59895    
 -37.00 -74.00     0.70176    
 -37.00 -73.00     0.77592    
 -37.00 -72.00     0.80386    
 -37.00 -71.00     0.77395    
 -37.00 -70.00     0.68312    
 -37.00 -69.00     0.54069    
 -37.00 -68.00     0.36795    
 -37.00 -67.00     0.19461    
 -37.00 -66.00     0.53135E-01
 -37.00 -65.00    -0.29071E-01
 -37.00 -64.00    -0.36709E-01
 -37.00 -63.00     0.29672E-01
 -37.00 -62.00     0.15386    
 -37.00 -61.00     0.30693    
 -37.00 -60.00     0.45550    
 -37.00 -59.00     0.56896    
 -37.00 -58.00     0.62710    
 -37.00 -57.00     0.62414    
 -37.00 -56.00     0.56919    
 -37.00 -55.00     0.48252    
 -37.00 -54.00     0.38946    
 -37.00 -53.00     0.31396    
 -37.00 -52.00     0.27274    
 -37.00 -51.00     0.27258    
 -37.00 -50.00     0.30983    
 -37.00 -49.00     0.37265    
 -37.00 -48.00     0.44495    
 -37.00 -47.00     0.50968    
 -37.00 -46.00     0.55174    
 -37.00 -45.00     0.55968    
 -37.00 -44.00     0.52627    
 -37.00 -43.00     0.44842    
 -37.00 -42.00     0.32779    
 -37.00 -41.00     0.17122    
 -37.00 -40.00    -0.86317E-02
 -37.00 -39.00    -0.19317    
 -37.00 -38.00    -0.35932    
 -37.00 -37.00    -0.48278    
 -37.00 -36.00    -0.54281    
 -37.00 -35.00    -0.52759    
 -37.00 -34.00    -0.43859    
 -37.00 -33.00    -0.29217    
 -37.00 -32.00    -0.11754    
 -37.00 -31.00     0.49114E-01
 -37.00 -30.00     0.17306    
 -37.00 -29.00     0.22987    
 -37.00 -28.00     0.21207    
 -37.00 -27.00     0.13149    
 -37.00 -26.00     0.16283E-01
 -37.00 -25.00    -0.96799E-01
 -37.00 -24.00    -0.17276    
 -37.00 -23.00    -0.18835    
 -37.00 -22.00    -0.13871    
 -37.00 -21.00    -0.38496E-01
 -37.00 -20.00     0.82852E-01
 -37.00 -19.00     0.19037    
 -37.00 -18.00     0.25449    
 -37.00 -17.00     0.26035    
 -37.00 -16.00     0.21232    
 -37.00 -15.00     0.13267    
 -37.00 -14.00     0.54455E-01
 -37.00 -13.00     0.11075E-01
 -37.00 -12.00     0.25699E-01
 -37.00 -11.00     0.10390    
 -37.00 -10.00     0.23177    
 -37.00  -9.00     0.38008    
 -37.00  -8.00     0.51306    
 -37.00  -7.00     0.59905    
 -37.00  -6.00     0.61965    
 -37.00  -5.00     0.57462    
 -37.00  -4.00     0.48118    
 -37.00  -3.00     0.36814    
 -37.00  -2.00     0.26697    
 -37.00  -1.00     0.20267    
 -37.00   0.00     0.18737    
 -37.00   1.00     0.21832    
 -37.00   2.00     0.28067    
 -37.00   3.00     0.35354    
 -37.00   4.00     0.41734    
 -37.00   5.00     0.45951    
 -37.00   6.00     0.47719    
 -37.00   7.00     0.47600    
 -37.00   8.00     0.46598    
 -37.00   9.00     0.45646    
 -37.00  10.00     0.45191    
 -37.00  11.00     0.45046    
 -37.00  12.00     0.44555    
 -37.00  13.00     0.42986    
 -37.00  14.00     0.39985    
 -37.00  15.00     0.35894    
 -37.00  16.00     0.31783    
 -37.00  17.00     0.29145    
 -37.00  18.00     0.29364    
 -37.00  19.00     0.33132    
 -37.00  20.00     0.40032    
 -37.00  21.00     0.48485    
 -37.00  22.00     0.56084    
 -37.00  23.00     0.60274    
 -37.00  24.00     0.59128    
 -37.00  25.00     0.52005    
 -37.00  26.00     0.39835    
 -37.00  27.00     0.24924    
 -37.00  28.00     0.10332    
 -37.00  29.00    -0.10091E-01
 -37.00  30.00    -0.71505E-01
 -37.00  31.00    -0.76941E-01
 -37.00  32.00    -0.38833E-01
 -37.00  33.00     0.18075E-01
 -37.00  34.00     0.64565E-01
 -37.00  35.00     0.76037E-01
 -37.00  36.00     0.39972E-01
 -37.00  37.00    -0.40510E-01
 -37.00  38.00    -0.14804    
 -37.00  39.00    -0.25670    
 -37.00  40.00    -0.34018    
 -37.00  41.00    -0.37964    
 -37.00  42.00    -0.36890    
 -37.00  43.00    -0.31530    
 -37.00  44.00    -0.23653    
 -37.00  45.00    -0.15437    
 -37.00  46.00    -0.87451E-01
 -37.00  47.00    -0.46559E-01
 -37.00  48.00    -0.31964E-01
 -37.00  49.00    -0.35337E-01
 -37.00  50.00    -0.44433E-01
 -37.00  51.00    -0.48495E-01
 -37.00  52.00    -0.42848E-01
 -37.00  53.00    -0.30631E-01
 -37.00  54.00    -0.21173E-01
 -37.00  55.00    -0.25582E-01
 -37.00  56.00    -0.51543E-01
 -37.00  57.00    -0.98401E-01
 -37.00  58.00    -0.15572    
 -37.00  59.00    -0.20494    
 -37.00  60.00    -0.22449    
 -37.00  61.00    -0.19666    
 -37.00  62.00    -0.11401    
 -37.00  63.00     0.16586E-01
 -37.00  64.00     0.17388    
 -37.00  65.00     0.32632    
 -37.00  66.00     0.43915    
 -37.00  67.00     0.48305    
 -37.00  68.00     0.44158    
 -37.00  69.00     0.31570    
 -37.00  70.00     0.12390    
 -37.00  71.00    -0.10109    
 -37.00  72.00    -0.31865    
 -37.00  73.00    -0.49093    
 -37.00  74.00    -0.58734    
 -37.00  75.00    -0.59183    
 -37.00  76.00    -0.50574    
 -37.00  77.00    -0.34510    
 -37.00  78.00    -0.13817    
 -37.00  79.00     0.80406E-01
 -37.00  80.00     0.27619    
 -37.00  81.00     0.41970    
 -37.00  82.00     0.49188    
 -37.00  83.00     0.48558    
 -37.00  84.00     0.40594    
 -37.00  85.00     0.26993    
 -37.00  86.00     0.10161    
 -37.00  87.00    -0.70290E-01
 -37.00  88.00    -0.22082    
 -37.00  89.00    -0.32995    
 -36.00 -89.00     0.22538    
 -36.00 -88.00     0.21747    
 -36.00 -87.00     0.19075    
 -36.00 -86.00     0.15110    
 -36.00 -85.00     0.10643    
 -36.00 -84.00     0.68558E-01
 -36.00 -83.00     0.46761E-01
 -36.00 -82.00     0.44492E-01
 -36.00 -81.00     0.67161E-01
 -36.00 -80.00     0.11432    
 -36.00 -79.00     0.18451    
 -36.00 -78.00     0.27470    
 -36.00 -77.00     0.38123    
 -36.00 -76.00     0.49799    
 -36.00 -75.00     0.61484    
 -36.00 -74.00     0.71835    
 -36.00 -73.00     0.79339    
 -36.00 -72.00     0.82331    
 -36.00 -71.00     0.79690    
 -36.00 -70.00     0.71075    
 -36.00 -69.00     0.57298    
 -36.00 -68.00     0.40320    
 -36.00 -67.00     0.22959    
 -36.00 -66.00     0.83771E-01
 -36.00 -65.00    -0.65833E-02
 -36.00 -64.00    -0.24463E-01
 -36.00 -63.00     0.32239E-01
 -36.00 -62.00     0.15028    
 -36.00 -61.00     0.30320    
 -36.00 -60.00     0.45876    
 -36.00 -59.00     0.58567    
 -36.00 -58.00     0.66138    
 -36.00 -57.00     0.67657    
 -36.00 -56.00     0.63642    
 -36.00 -55.00     0.55804    
 -36.00 -54.00     0.46515    
 -36.00 -53.00     0.38171    
 -36.00 -52.00     0.32629    
 -36.00 -51.00     0.30824    
 -36.00 -50.00     0.32669    
 -36.00 -49.00     0.37170    
 -36.00 -48.00     0.42789    
 -36.00 -47.00     0.47763    
 -36.00 -46.00     0.50459    
 -36.00 -45.00     0.49624    
 -36.00 -44.00     0.44514    
 -36.00 -43.00     0.34942    
 -36.00 -42.00     0.21312    
 -36.00 -41.00     0.46148E-01
 -36.00 -40.00    -0.13619    
 -36.00 -39.00    -0.31420    
 -36.00 -38.00    -0.46589    
 -36.00 -37.00    -0.57034    
 -36.00 -36.00    -0.61186    
 -36.00 -35.00    -0.58405    
 -36.00 -34.00    -0.49258    
 -36.00 -33.00    -0.35559    
 -36.00 -32.00    -0.20082    
 -36.00 -31.00    -0.60010E-01
 -36.00 -30.00     0.38526E-01
 -36.00 -29.00     0.77005E-01
 -36.00 -28.00     0.53028E-01
 -36.00 -27.00    -0.19539E-01
 -36.00 -26.00    -0.11416    
 -36.00 -25.00    -0.19895    
 -36.00 -24.00    -0.24575    
 -36.00 -23.00    -0.23820    
 -36.00 -22.00    -0.17660    
 -36.00 -21.00    -0.77601E-01
 -36.00 -20.00     0.30903E-01
 -36.00 -19.00     0.11853    
 -36.00 -18.00     0.16194    
 -36.00 -17.00     0.15234    
 -36.00 -16.00     0.98470E-01
 -36.00 -15.00     0.24075E-01
 -36.00 -14.00    -0.39291E-01
 -36.00 -13.00    -0.62089E-01
 -36.00 -12.00    -0.26092E-01
 -36.00 -11.00     0.69704E-01
 -36.00 -10.00     0.20839    
 -36.00  -9.00     0.35991    
 -36.00  -8.00     0.48972    
 -36.00  -7.00     0.56870    
 -36.00  -6.00     0.58134    
 -36.00  -5.00     0.52962    
 -36.00  -4.00     0.43176    
 -36.00  -3.00     0.31634    
 -36.00  -2.00     0.21383    
 -36.00  -1.00     0.14825    
 -36.00   0.00     0.13145    
 -36.00   1.00     0.16153    
 -36.00   2.00     0.22546    
 -36.00   3.00     0.30461    
 -36.00   4.00     0.38114    
 -36.00   5.00     0.44294    
 -36.00   6.00     0.48577    
 -36.00   7.00     0.51214    
 -36.00   8.00     0.52793    
 -36.00   9.00     0.53831    
 -36.00  10.00     0.54477    
 -36.00  11.00     0.54451    
 -36.00  12.00     0.53244    
 -36.00  13.00     0.50465    
 -36.00  14.00     0.46207    
 -36.00  15.00     0.41228    
 -36.00  16.00     0.36864    
 -36.00  17.00     0.34649    
 -36.00  18.00     0.35779    
 -36.00  19.00     0.40583    
 -36.00  20.00     0.48233    
 -36.00  21.00     0.56811    
 -36.00  22.00     0.63759    
 -36.00  23.00     0.66593    
 -36.00  24.00     0.63668    
 -36.00  25.00     0.54737    
 -36.00  26.00     0.41114    
 -36.00  27.00     0.25359    
 -36.00  28.00     0.10570    
 -36.00  29.00    -0.50505E-02
 -36.00  30.00    -0.62655E-01
 -36.00  31.00    -0.67079E-01
 -36.00  32.00    -0.33817E-01
 -36.00  33.00     0.11347E-01
 -36.00  34.00     0.40720E-01
 -36.00  35.00     0.33552E-01
 -36.00  36.00    -0.17477E-01
 -36.00  37.00    -0.10416    
 -36.00  38.00    -0.20570    
 -36.00  39.00    -0.29553    
 -36.00  40.00    -0.34995    
 -36.00  41.00    -0.35556    
 -36.00  42.00    -0.31325    
 -36.00  43.00    -0.23741    
 -36.00  44.00    -0.15103    
 -36.00  45.00    -0.78161E-01
 -36.00  46.00    -0.36158E-01
 -36.00  47.00    -0.31292E-01
 -36.00  48.00    -0.57151E-01
 -36.00  49.00    -0.98236E-01
 -36.00  50.00    -0.13619    
 -36.00  51.00    -0.15659    
 -36.00  52.00    -0.15412    
 -36.00  53.00    -0.13428    
 -36.00  54.00    -0.11085    
 -36.00  55.00    -0.10016    
 -36.00  56.00    -0.11464    
 -36.00  57.00    -0.15678    
 -36.00  58.00    -0.21704    
 -36.00  59.00    -0.27542    
 -36.00  60.00    -0.30751    
 -36.00  61.00    -0.29184    
 -36.00  62.00    -0.21757    
 -36.00  63.00    -0.89199E-01
 -36.00  64.00     0.72831E-01
 -36.00  65.00     0.23623    
 -36.00  66.00     0.36443    
 -36.00  67.00     0.42560    
 -36.00  68.00     0.40102    
 -36.00  69.00     0.28974    
 -36.00  70.00     0.10930    
 -36.00  71.00    -0.10784    
 -36.00  72.00    -0.32069    
 -36.00  73.00    -0.49074    
 -36.00  74.00    -0.58671    
 -36.00  75.00    -0.59202    
 -36.00  76.00    -0.50770    
 -36.00  77.00    -0.34937    
 -36.00  78.00    -0.14499    
 -36.00  79.00     0.71107E-01
 -36.00  80.00     0.26505    
 -36.00  81.00     0.40774    
 -36.00  82.00     0.48048    
 -36.00  83.00     0.47600    
 -36.00  84.00     0.39918    
 -36.00  85.00     0.26652    
 -36.00  86.00     0.10105    
 -36.00  87.00    -0.68990E-01
 -36.00  88.00    -0.21904    
 -36.00  89.00    -0.32879    
 -35.00 -89.00     0.22395    
 -35.00 -88.00     0.21461    
 -35.00 -87.00     0.18594    
 -35.00 -86.00     0.14382    
 -35.00 -85.00     0.96202E-01
 -35.00 -84.00     0.55785E-01
 -35.00 -83.00     0.32505E-01
 -35.00 -82.00     0.31129E-01
 -35.00 -81.00     0.56743E-01
 -35.00 -80.00     0.10850    
 -35.00 -79.00     0.18422    
 -35.00 -78.00     0.27953    
 -35.00 -77.00     0.38974    
 -35.00 -76.00     0.50816    
 -35.00 -75.00     0.62490    
 -35.00 -74.00     0.72735    
 -35.00 -73.00     0.80180    
 -35.00 -72.00     0.83277    
 -35.00 -71.00     0.80971    
 -35.00 -70.00     0.72890    
 -35.00 -69.00     0.59723    
 -35.00 -68.00     0.43236    
 -35.00 -67.00     0.26050    
 -35.00 -66.00     0.11197    
 -35.00 -65.00     0.14207E-01
 -35.00 -64.00    -0.14480E-01
 -35.00 -63.00     0.30520E-01
 -35.00 -62.00     0.13897    
 -35.00 -61.00     0.28722    
 -35.00 -60.00     0.44477    
 -35.00 -59.00     0.58043    
 -35.00 -58.00     0.67014    
 -35.00 -57.00     0.70171    
 -35.00 -56.00     0.67691    
 -35.00 -55.00     0.60980    
 -35.00 -54.00     0.52213    
 -35.00 -53.00     0.43718    
 -35.00 -52.00     0.37434    
 -35.00 -51.00     0.34441    
 -35.00 -50.00     0.34823    
 -35.00 -49.00     0.37706    
 -35.00 -48.00     0.41596    
 -35.00 -47.00     0.44710    
 -35.00 -46.00     0.45377    
 -35.00 -45.00     0.42361    
 -35.00 -44.00     0.35026    
 -35.00 -43.00     0.23418    
 -35.00 -42.00     0.82510E-01
 -35.00 -41.00    -0.91853E-01
 -35.00 -40.00    -0.27161    
 -35.00 -39.00    -0.43714    
 -35.00 -38.00    -0.56898    
 -35.00 -37.00    -0.65089    
 -35.00 -36.00    -0.67302    
 -35.00 -35.00    -0.63448    
 -35.00 -34.00    -0.54450    
 -35.00 -33.00    -0.42161    
 -35.00 -32.00    -0.29042    
 -35.00 -31.00    -0.17657    
 -35.00 -30.00    -0.10087    
 -35.00 -29.00    -0.74105E-01
 -35.00 -28.00    -0.94220E-01
 -35.00 -27.00    -0.14673    
 -35.00 -26.00    -0.20864    
 -35.00 -25.00    -0.25496    
 -35.00 -24.00    -0.26597    
 -35.00 -23.00    -0.23316    
 -35.00 -22.00    -0.16191    
 -35.00 -21.00    -0.70041E-01
 -35.00 -20.00     0.17580E-01
 -35.00 -19.00     0.76805E-01
 -35.00 -18.00     0.91964E-01
 -35.00 -17.00     0.61214E-01
 -35.00 -16.00    -0.22822E-02
 -35.00 -15.00    -0.73857E-01
 -35.00 -14.00    -0.12455    
 -35.00 -13.00    -0.12989    
 -35.00 -12.00    -0.77507E-01
 -35.00 -11.00     0.28689E-01
 -35.00 -10.00     0.16920    
 -35.00  -9.00     0.31425    
 -35.00  -8.00     0.43209    
 -35.00  -7.00     0.49792    
 -35.00  -6.00     0.50050    
 -35.00  -5.00     0.44490    
 -35.00  -4.00     0.35034    
 -35.00  -3.00     0.24430    
 -35.00  -2.00     0.15466    
 -35.00  -1.00     0.10244    
 -35.00   0.00     0.97105E-01
 -35.00   1.00     0.13581    
 -35.00   2.00     0.20617    
 -35.00   3.00     0.29141    
 -35.00   4.00     0.37583    
 -35.00   5.00     0.44888    
 -35.00   6.00     0.50653    
 -35.00   7.00     0.54989    
 -35.00   8.00     0.58221    
 -35.00   9.00     0.60559    
 -35.00  10.00     0.61897    
 -35.00  11.00     0.61842    
 -35.00  12.00     0.59942    
 -35.00  13.00     0.56028    
 -35.00  14.00     0.50500    
 -35.00  15.00     0.44415    
 -35.00  16.00     0.39302    
 -35.00  17.00     0.36731    
 -35.00  18.00     0.37760    
 -35.00  19.00     0.42474    
 -35.00  20.00     0.49777    
 -35.00  21.00     0.57563    
 -35.00  22.00     0.63238    
 -35.00  23.00     0.64461    
 -35.00  24.00     0.59869    
 -35.00  25.00     0.49557    
 -35.00  26.00     0.35121    
 -35.00  27.00     0.19259    
 -35.00  28.00     0.50057E-01
 -35.00  29.00    -0.51408E-01
 -35.00  30.00    -0.99445E-01
 -35.00  31.00    -0.97651E-01
 -35.00  32.00    -0.63937E-01
 -35.00  33.00    -0.24394E-01
 -35.00  34.00    -0.46298E-02
 -35.00  35.00    -0.21369E-01
 -35.00  36.00    -0.77044E-01
 -35.00  37.00    -0.15913    
 -35.00  38.00    -0.24441    
 -35.00  39.00    -0.30681    
 -35.00  40.00    -0.32611    
 -35.00  41.00    -0.29481    
 -35.00  42.00    -0.22083    
 -35.00  43.00    -0.12508    
 -35.00  44.00    -0.34971E-01
 -35.00  45.00     0.24182E-01
 -35.00  46.00     0.37196E-01
 -35.00  47.00     0.30228E-02
 -35.00  48.00    -0.64982E-01
 -35.00  49.00    -0.14425    
 -35.00  50.00    -0.21068    
 -35.00  51.00    -0.24670    
 -35.00  52.00    -0.24688    
 -35.00  53.00    -0.21945    
 -35.00  54.00    -0.18283    
 -35.00  55.00    -0.15859    
 -35.00  56.00    -0.16375    
 -35.00  57.00    -0.20367    
 -35.00  58.00    -0.26950    
 -35.00  59.00    -0.33966    
 -35.00  60.00    -0.38667    
 -35.00  61.00    -0.38534    
 -35.00  62.00    -0.32137    
 -35.00  63.00    -0.19684    
 -35.00  64.00    -0.31360E-01
 -35.00  65.00     0.14213    
 -35.00  66.00     0.28531    
 -35.00  67.00     0.36385    
 -35.00  68.00     0.35673    
 -35.00  69.00     0.26100    
 -35.00  70.00     0.93055E-01
 -35.00  71.00    -0.11501    
 -35.00  72.00    -0.32216    
 -35.00  73.00    -0.48927    
 -35.00  74.00    -0.58447    
 -35.00  75.00    -0.59059    
 -35.00  76.00    -0.50834    
 -35.00  77.00    -0.35276    
 -35.00  78.00    -0.15145    
 -35.00  79.00     0.61725E-01
 -35.00  80.00     0.25350    
 -35.00  81.00     0.39522    
 -35.00  82.00     0.46848    
 -35.00  83.00     0.46587    
 -35.00  84.00     0.39200    
 -35.00  85.00     0.26280    
 -35.00  86.00     0.10030    
 -35.00  87.00    -0.67807E-01
 -35.00  88.00    -0.21731    
 -35.00  89.00    -0.32764    
 -34.00 -89.00     0.22252    
 -34.00 -88.00     0.21177    
 -34.00 -87.00     0.18121    
 -34.00 -86.00     0.13665    
 -34.00 -85.00     0.86194E-01
 -34.00 -84.00     0.43323E-01
 -34.00 -83.00     0.18614E-01
 -34.00 -82.00     0.18227E-01
 -34.00 -81.00     0.46727E-01
 -34.00 -80.00     0.10284    
 -34.00 -79.00     0.18353    
 -34.00 -78.00     0.28309    
 -34.00 -77.00     0.39570    
 -34.00 -76.00     0.51420    
 -34.00 -75.00     0.62907    
 -34.00 -74.00     0.72876    
 -34.00 -73.00     0.80117    
 -34.00 -72.00     0.83231    
 -34.00 -71.00     0.81245    
 -34.00 -70.00     0.73767    
 -34.00 -69.00     0.61355    
 -34.00 -68.00     0.45551    
 -34.00 -67.00     0.28746    
 -34.00 -66.00     0.13790    
 -34.00 -65.00     0.33590E-01
 -34.00 -64.00    -0.62932E-02
 -34.00 -63.00     0.25181E-01
 -34.00 -62.00     0.12082    
 -34.00 -61.00     0.26012    
 -34.00 -60.00     0.41485    
 -34.00 -59.00     0.55472    
 -34.00 -58.00     0.65490    
 -34.00 -57.00     0.70106    
 -34.00 -56.00     0.69199    
 -34.00 -55.00     0.63875    
 -34.00 -54.00     0.56083    
 -34.00 -53.00     0.48009    
 -34.00 -52.00     0.41579    
 -34.00 -51.00     0.37914    
 -34.00 -50.00     0.37172    
 -34.00 -49.00     0.38549    
 -34.00 -48.00     0.40583    
 -34.00 -47.00     0.41514    
 -34.00 -46.00     0.39733    
 -34.00 -45.00     0.34133    
 -34.00 -44.00     0.24308    
 -34.00 -43.00     0.10632    
 -34.00 -42.00    -0.58342E-01
 -34.00 -41.00    -0.23519    
 -34.00 -40.00    -0.40577    
 -34.00 -39.00    -0.55176    
 -34.00 -38.00    -0.65755    
 -34.00 -37.00    -0.71274    
 -34.00 -36.00    -0.71394    
 -34.00 -35.00    -0.66568    
 -34.00 -34.00    -0.58001    
 -34.00 -33.00    -0.47458    
 -34.00 -32.00    -0.36938    
 -34.00 -31.00    -0.28269    
 -34.00 -30.00    -0.22702    
 -34.00 -29.00    -0.20615    
 -34.00 -28.00    -0.21430    
 -34.00 -27.00    -0.23769    
 -34.00 -26.00    -0.25852    
 -34.00 -25.00    -0.26018    
 -34.00 -24.00    -0.23243    
 -34.00 -23.00    -0.17488    
 -34.00 -22.00    -0.97568E-01
 -34.00 -21.00    -0.18375E-01
 -34.00 -20.00     0.42273E-01
 -34.00 -19.00     0.67812E-01
 -34.00 -18.00     0.51149E-01
 -34.00 -17.00    -0.23326E-02
 -34.00 -16.00    -0.75474E-01
 -34.00 -15.00    -0.14371    
 -34.00 -14.00    -0.18197    
 -34.00 -13.00    -0.17200    
 -34.00 -12.00    -0.10807    
 -34.00 -11.00     0.96447E-03
 -34.00 -10.00     0.13371    
 -34.00  -9.00     0.26199    
 -34.00  -8.00     0.35861    
 -34.00  -7.00     0.40471    
 -34.00  -6.00     0.39473    
 -34.00  -5.00     0.33744    
 -34.00  -4.00     0.25294    
 -34.00  -3.00     0.16664    
 -34.00  -2.00     0.10226    
 -34.00  -1.00     0.75845E-01
 -34.00   0.00     0.92574E-01
 -34.00   1.00     0.14703    
 -34.00   2.00     0.22649    
 -34.00   3.00     0.31572    
 -34.00   4.00     0.40172    
 -34.00   5.00     0.47659    
 -34.00   6.00     0.53800    
 -34.00   7.00     0.58733    
 -34.00   8.00     0.62662    
 -34.00   9.00     0.65586    
 -34.00  10.00     0.67183    
 -34.00  11.00     0.66914    
 -34.00  12.00     0.64300    
 -34.00  13.00     0.59269    
 -34.00  14.00     0.52394    
 -34.00  15.00     0.44921    
 -34.00  16.00     0.38511    
 -34.00  17.00     0.34768    
 -34.00  18.00     0.34684    
 -34.00  19.00     0.38217    
 -34.00  20.00     0.44152    
 -34.00  21.00     0.50338    
 -34.00  22.00     0.54256    
 -34.00  23.00     0.53763    
 -34.00  24.00     0.47768    
 -34.00  25.00     0.36633    
 -34.00  26.00     0.22136    
 -34.00  27.00     0.69907E-01
 -34.00  28.00    -0.59262E-01
 -34.00  29.00    -0.14426    
 -34.00  30.00    -0.17643    
 -34.00  31.00    -0.16265    
 -34.00  32.00    -0.12261    
 -34.00  33.00    -0.82062E-01
 -34.00  34.00    -0.64142E-01
 -34.00  35.00    -0.81561E-01
 -34.00  36.00    -0.13234    
 -34.00  37.00    -0.20048    
 -34.00  38.00    -0.26138    
 -34.00  39.00    -0.29035    
 -34.00  40.00    -0.27127    
 -34.00  41.00    -0.20266    
 -34.00  42.00    -0.99035E-01
 -34.00  43.00     0.12994E-01
 -34.00  44.00     0.10264    
 -34.00  45.00     0.14439    
 -34.00  46.00     0.12595    
 -34.00  47.00     0.51912E-01
 -34.00  48.00    -0.57504E-01
 -34.00  49.00    -0.17309    
 -34.00  50.00    -0.26566    
 -34.00  51.00    -0.31520    
 -34.00  52.00    -0.31671    
 -34.00  53.00    -0.28147    
 -34.00  54.00    -0.23258    
 -34.00  55.00    -0.19665    
 -34.00  56.00    -0.19495    
 -34.00  57.00    -0.23536    
 -34.00  58.00    -0.30942    
 -34.00  59.00    -0.39378    
 -34.00  60.00    -0.45791    
 -34.00  61.00    -0.47288    
 -34.00  62.00    -0.42102    
 -34.00  63.00    -0.30204    
 -34.00  64.00    -0.13467    
 -34.00  65.00     0.47565E-01
 -34.00  66.00     0.20471    
 -34.00  67.00     0.30007    
 -34.00  68.00     0.31033    
 -34.00  69.00     0.23054    
 -34.00  70.00     0.75809E-01
 -34.00  71.00    -0.12229    
 -34.00  72.00    -0.32293    
 -34.00  73.00    -0.48645    
 -34.00  74.00    -0.58054    
 -34.00  75.00    -0.58747    
 -34.00  76.00    -0.50752    
 -34.00  77.00    -0.35514    
 -34.00  78.00    -0.15740    
 -34.00  79.00     0.52411E-01
 -34.00  80.00     0.24168    
 -34.00  81.00     0.38224    
 -34.00  82.00     0.45596    
 -34.00  83.00     0.45525    
 -34.00  84.00     0.38442    
 -34.00  85.00     0.25880    
 -34.00  86.00     0.99398E-01
 -34.00  87.00    -0.66737E-01
 -34.00  88.00    -0.21561    
 -34.00  89.00    -0.32650    
 -33.00 -89.00     0.22109    
 -33.00 -88.00     0.20895    
 -33.00 -87.00     0.17656    
 -33.00 -86.00     0.12962    
 -33.00 -85.00     0.76428E-01
 -33.00 -84.00     0.31205E-01
 -33.00 -83.00     0.51368E-02
 -33.00 -82.00     0.58059E-02
 -33.00 -81.00     0.37108E-01
 -33.00 -80.00     0.97309E-01
 -33.00 -79.00     0.18241    
 -33.00 -78.00     0.28531    
 -33.00 -77.00     0.39909    
 -33.00 -76.00     0.51613    
 -33.00 -75.00     0.62746    
 -33.00 -74.00     0.72274    
 -33.00 -73.00     0.79177    
 -33.00 -72.00     0.82224    
 -33.00 -71.00     0.80549    
 -33.00 -70.00     0.73740    
 -33.00 -69.00     0.62222    
 -33.00 -68.00     0.47294    
 -33.00 -67.00     0.31077    
 -33.00 -66.00     0.16192    
 -33.00 -65.00     0.52064E-01
 -33.00 -64.00     0.86350E-03
 -33.00 -63.00     0.17343E-01
 -33.00 -62.00     0.97389E-01
 -33.00 -61.00     0.22392    
 -33.00 -60.00     0.37152    
 -33.00 -59.00     0.51146    
 -33.00 -58.00     0.61885    
 -33.00 -57.00     0.67787    
 -33.00 -56.00     0.68469    
 -33.00 -55.00     0.64743    
 -33.00 -54.00     0.58298    
 -33.00 -53.00     0.51114    
 -33.00 -52.00     0.45015    
 -33.00 -51.00     0.41073    
 -33.00 -50.00     0.39447    
 -33.00 -49.00     0.39365    
 -33.00 -48.00     0.39402    
 -33.00 -47.00     0.37881    
 -33.00 -46.00     0.33342    
 -33.00 -45.00     0.24920    
 -33.00 -44.00     0.12541    
 -33.00 -43.00    -0.30268E-01
 -33.00 -42.00    -0.20356    
 -33.00 -41.00    -0.37633    
 -33.00 -40.00    -0.52988    
 -33.00 -39.00    -0.64839    
 -33.00 -38.00    -0.72135    
 -33.00 -37.00    -0.74511    
 -33.00 -36.00    -0.72320    
 -33.00 -35.00    -0.66541    
 -33.00 -34.00    -0.58583    
 -33.00 -33.00    -0.50013    
 -33.00 -32.00    -0.42253    
 -33.00 -31.00    -0.36300    
 -33.00 -30.00    -0.32534    
 -33.00 -29.00    -0.30653    
 -33.00 -28.00    -0.29782    
 -33.00 -27.00    -0.28727    
 -33.00 -26.00    -0.26343    
 -33.00 -25.00    -0.21896    
 -33.00 -24.00    -0.15349    
 -33.00 -23.00    -0.74442E-01
 -33.00 -22.00     0.43135E-02
 -33.00 -21.00     0.66063E-01
 -33.00 -20.00     0.96060E-01
 -33.00 -19.00     0.86266E-01
 -33.00 -18.00     0.38555E-01
 -33.00 -17.00    -0.34756E-01
 -33.00 -16.00    -0.11341    
 -33.00 -15.00    -0.17425    
 -33.00 -14.00    -0.19743    
 -33.00 -13.00    -0.17208    
 -33.00 -12.00    -0.99616E-01
 -33.00 -11.00     0.62654E-02
 -33.00 -10.00     0.12308    
 -33.00  -9.00     0.22559    
 -33.00  -8.00     0.29262    
 -33.00  -7.00     0.31273    
 -33.00  -6.00     0.28703    
 -33.00  -5.00     0.22844    
 -33.00  -4.00     0.15769    
 -33.00  -3.00     0.97293E-01
 -33.00  -2.00     0.65511E-01
 -33.00  -1.00     0.71951E-01
 -33.00   0.00     0.11608    
 -33.00   1.00     0.18883    
 -33.00   2.00     0.27649    
 -33.00   3.00     0.36537    
 -33.00   4.00     0.44560    
 -33.00   5.00     0.51293    
 -33.00   6.00     0.56794    
 -33.00   7.00     0.61351    
 -33.00   8.00     0.65158    
 -33.00   9.00     0.68075    
 -33.00  10.00     0.69586    
 -33.00  11.00     0.68973    
 -33.00  12.00     0.65652    
 -33.00  13.00     0.59538    
 -33.00  14.00     0.51270    
 -33.00  15.00     0.42191    
 -33.00  16.00     0.34048    
 -33.00  17.00     0.28486    
 -33.00  18.00     0.26499    
 -33.00  19.00     0.28029    
 -33.00  20.00     0.31869    
 -33.00  21.00     0.35946    
 -33.00  22.00     0.37903    
 -33.00  23.00     0.35823    
 -33.00  24.00     0.28861    
 -33.00  25.00     0.17572    
 -33.00  26.00     0.38026E-01
 -33.00  27.00    -0.98175E-01
 -33.00  28.00    -0.20657    
 -33.00  29.00    -0.26874    
 -33.00  30.00    -0.27968    
 -33.00  31.00    -0.24907    
 -33.00  32.00    -0.19778    
 -33.00  33.00    -0.15069    
 -33.00  34.00    -0.12819    
 -33.00  35.00    -0.13917    
 -33.00  36.00    -0.17782    
 -33.00  37.00    -0.22552    
 -33.00  38.00    -0.25722    
 -33.00  39.00    -0.25029    
 -33.00  40.00    -0.19296    
 -33.00  41.00    -0.89542E-01
 -33.00  42.00     0.39612E-01
 -33.00  43.00     0.16326    
 -33.00  44.00     0.24840    
 -33.00  45.00     0.27024    
 -33.00  46.00     0.21996    
 -33.00  47.00     0.10783    
 -33.00  48.00    -0.39513E-01
 -33.00  49.00    -0.18700    
 -33.00  50.00    -0.30131    
 -33.00  51.00    -0.36078    
 -33.00  52.00    -0.36146    
 -33.00  53.00    -0.31784    
 -33.00  54.00    -0.25759    
 -33.00  55.00    -0.21197    
 -33.00  56.00    -0.20596    
 -33.00  57.00    -0.24955    
 -33.00  58.00    -0.33426    
 -33.00  59.00    -0.43491    
 -33.00  60.00    -0.51790    
 -33.00  61.00    -0.55075    
 -33.00  62.00    -0.51256    
 -33.00  63.00    -0.40080    
 -33.00  64.00    -0.23330    
 -33.00  65.00    -0.44063E-01
 -33.00  66.00     0.12546    
 -33.00  67.00     0.23647    
 -33.00  68.00     0.26341    
 -33.00  69.00     0.19939    
 -33.00  70.00     0.58172E-01
 -33.00  71.00    -0.12936    
 -33.00  72.00    -0.32284    
 -33.00  73.00    -0.48222    
 -33.00  74.00    -0.57485    
 -33.00  75.00    -0.58256    
 -33.00  76.00    -0.50513    
 -33.00  77.00    -0.35635    
 -33.00  78.00    -0.16268    
 -33.00  79.00     0.43314E-01
 -33.00  80.00     0.22971    
 -33.00  81.00     0.36890    
 -33.00  82.00     0.44299    
 -33.00  83.00     0.44421    
 -33.00  84.00     0.37651    
 -33.00  85.00     0.25455    
 -33.00  86.00     0.98337E-01
 -33.00  87.00    -0.65773E-01
 -33.00  88.00    -0.21395    
 -33.00  89.00    -0.32538    
 -32.00 -89.00     0.21967    
 -32.00 -88.00     0.20616    
 -32.00 -87.00     0.17201    
 -32.00 -86.00     0.12275    
 -32.00 -85.00     0.66929E-01
 -32.00 -84.00     0.19465E-01
 -32.00 -83.00    -0.78725E-02
 -32.00 -82.00    -0.61130E-02
 -32.00 -81.00     0.27884E-01
 -32.00 -80.00     0.91892E-01
 -32.00 -79.00     0.18082    
 -32.00 -78.00     0.28621    
 -32.00 -77.00     0.39994    
 -32.00 -76.00     0.51408    
 -32.00 -75.00     0.62029    
 -32.00 -74.00     0.70966    
 -32.00 -73.00     0.77405    
 -32.00 -72.00     0.80312    
 -32.00 -71.00     0.78939    
 -32.00 -70.00     0.72867    
 -32.00 -69.00     0.62379    
 -32.00 -68.00     0.48512    
 -32.00 -67.00     0.33086    
 -32.00 -66.00     0.18451    
 -32.00 -65.00     0.70295E-01
 -32.00 -64.00     0.79918E-02
 -32.00 -63.00     0.84898E-02
 -32.00 -62.00     0.70779E-01
 -32.00 -61.00     0.18145    
 -32.00 -60.00     0.31832    
 -32.00 -59.00     0.45481    
 -32.00 -58.00     0.56662    
 -32.00 -57.00     0.63692    
 -32.00 -56.00     0.65958    
 -32.00 -55.00     0.63982    
 -32.00 -54.00     0.59154    
 -32.00 -53.00     0.53201    
 -32.00 -52.00     0.47766    
 -32.00 -51.00     0.43803    
 -32.00 -50.00     0.41422    
 -32.00 -49.00     0.39862    
 -32.00 -48.00     0.37757    
 -32.00 -47.00     0.33574    
 -32.00 -46.00     0.26092    
 -32.00 -45.00     0.14777    
 -32.00 -44.00    -0.30064E-03
 -32.00 -43.00    -0.17126    
 -32.00 -42.00    -0.34722    
 -32.00 -41.00    -0.50819    
 -32.00 -40.00    -0.63618    
 -32.00 -39.00    -0.71898    
 -32.00 -38.00    -0.75223    
 -32.00 -37.00    -0.73979    
 -32.00 -36.00    -0.69234    
 -32.00 -35.00    -0.62467    
 -32.00 -34.00    -0.55224    
 -32.00 -33.00    -0.48785    
 -32.00 -32.00    -0.43912    
 -32.00 -31.00    -0.40718    
 -32.00 -30.00    -0.38699    
 -32.00 -29.00    -0.36909    
 -32.00 -28.00    -0.34245    
 -32.00 -27.00    -0.29781    
 -32.00 -26.00    -0.23067    
 -32.00 -25.00    -0.14327    
 -32.00 -24.00    -0.44822E-01
 -32.00 -23.00     0.50161E-01
 -32.00 -22.00     0.12512    
 -32.00 -21.00     0.16568    
 -32.00 -20.00     0.16375    
 -32.00 -19.00     0.12032    
 -32.00 -18.00     0.46104E-01
 -32.00 -17.00    -0.40382E-01
 -32.00 -16.00    -0.11698    
 -32.00 -15.00    -0.16331    
 -32.00 -14.00    -0.16608    
 -32.00 -13.00    -0.12264    
 -32.00 -12.00    -0.41937E-01
 -32.00 -11.00     0.57726E-01
 -32.00 -10.00     0.15351    
 -32.00  -9.00     0.22412    
 -32.00  -8.00     0.25551    
 -32.00  -7.00     0.24453    
 -32.00  -6.00     0.19954    
 -32.00  -5.00     0.13773    
 -32.00  -4.00     0.80193E-01
 -32.00  -3.00     0.45978E-01
 -32.00  -2.00     0.47157E-01
 -32.00  -1.00     0.86161E-01
 -32.00   0.00     0.15614    
 -32.00   1.00     0.24399    
 -32.00   2.00     0.33492    
 -32.00   3.00     0.41694    
 -32.00   4.00     0.48378    
 -32.00   5.00     0.53542    
 -32.00   6.00     0.57610    
 -32.00   7.00     0.61093    
 -32.00   8.00     0.64232    
 -32.00   9.00     0.66784    
 -32.00  10.00     0.68042    
 -32.00  11.00     0.67078    
 -32.00  12.00     0.63148    
 -32.00  13.00     0.56076    
 -32.00  14.00     0.46487    
 -32.00  15.00     0.35760    
 -32.00  16.00     0.25699    
 -32.00  17.00     0.18005    
 -32.00  18.00     0.13727    
 -32.00  19.00     0.12875    
 -32.00  20.00     0.14350    
 -32.00  21.00     0.16238    
 -32.00  22.00     0.16393    
 -32.00  23.00     0.13130    
 -32.00  24.00     0.58072E-01
 -32.00  25.00    -0.49115E-01
 -32.00  26.00    -0.17201    
 -32.00  27.00    -0.28610    
 -32.00  28.00    -0.36805    
 -32.00  29.00    -0.40310    
 -32.00  30.00    -0.38963    
 -32.00  31.00    -0.33959    
 -32.00  32.00    -0.27439    
 -32.00  33.00    -0.21757    
 -32.00  34.00    -0.18668    
 -32.00  35.00    -0.18705    
 -32.00  36.00    -0.20972    
 -32.00  37.00    -0.23427    
 -32.00  38.00    -0.23591    
 -32.00  39.00    -0.19452    
 -32.00  40.00    -0.10264    
 -32.00  41.00     0.30273E-01
 -32.00  42.00     0.17904    
 -32.00  43.00     0.30902    
 -32.00  44.00     0.38615    
 -32.00  45.00     0.38718    
 -32.00  46.00     0.30702    
 -32.00  47.00     0.16134    
 -32.00  48.00    -0.17677E-01
 -32.00  49.00    -0.19017    
 -32.00  50.00    -0.31982    
 -32.00  51.00    -0.38428    
 -32.00  52.00    -0.38117    
 -32.00  53.00    -0.32829    
 -32.00  54.00    -0.25751    
 -32.00  55.00    -0.20421    
 -32.00  56.00    -0.19638    
 -32.00  57.00    -0.24555    
 -32.00  58.00    -0.34290    
 -32.00  59.00    -0.46133    
 -32.00  60.00    -0.56430    
 -32.00  61.00    -0.61603    
 -32.00  62.00    -0.59268    
 -32.00  63.00    -0.48963    
 -32.00  64.00    -0.32386    
 -32.00  65.00    -0.12968    
 -32.00  66.00     0.50180E-01
 -32.00  67.00     0.17508    
 -32.00  68.00     0.21745    
 -32.00  69.00     0.16853    
 -32.00  70.00     0.40697E-01
 -32.00  71.00    -0.13597    
 -32.00  72.00    -0.32179    
 -32.00  73.00    -0.47652    
 -32.00  74.00    -0.56737    
 -32.00  75.00    -0.57581    
 -32.00  76.00    -0.50107    
 -32.00  77.00    -0.35626    
 -32.00  78.00    -0.16714    
 -32.00  79.00     0.34576E-01
 -32.00  80.00     0.21773    
 -32.00  81.00     0.35531    
 -32.00  82.00     0.42966    
 -32.00  83.00     0.43281    
 -32.00  84.00     0.36831    
 -32.00  85.00     0.25008    
 -32.00  86.00     0.97135E-01
 -32.00  87.00    -0.64910E-01
 -32.00  88.00    -0.21232    
 -32.00  89.00    -0.32426    
 -31.00 -89.00     0.21825    
 -31.00 -88.00     0.20340    
 -31.00 -87.00     0.16757    
 -31.00 -86.00     0.11603    
 -31.00 -85.00     0.57724E-01
 -31.00 -84.00     0.81344E-02
 -31.00 -83.00    -0.20365E-01
 -31.00 -82.00    -0.17510E-01
 -31.00 -81.00     0.19056E-01
 -31.00 -80.00     0.86579E-01
 -31.00 -79.00     0.17877    
 -31.00 -78.00     0.28581    
 -31.00 -77.00     0.39836    
 -31.00 -76.00     0.50827    
 -31.00 -75.00     0.60792    
 -31.00 -74.00     0.69003    
 -31.00 -73.00     0.74868    
 -31.00 -72.00     0.77571    
 -31.00 -71.00     0.76496    
 -31.00 -70.00     0.71225    
 -31.00 -69.00     0.61896    
 -31.00 -68.00     0.49267    
 -31.00 -67.00     0.34829    
 -31.00 -66.00     0.20628    
 -31.00 -65.00     0.89052E-01
 -31.00 -64.00     0.16239E-01
 -31.00 -63.00     0.35290E-03
 -31.00 -62.00     0.43490E-01
 -31.00 -61.00     0.13610    
 -31.00 -60.00     0.25956    
 -31.00 -59.00     0.38994    
 -31.00 -58.00     0.50396    
 -31.00 -57.00     0.58418    
 -31.00 -56.00     0.62245    
 -31.00 -55.00     0.62100    
 -31.00 -54.00     0.59053    
 -31.00 -53.00     0.54529    
 -31.00 -52.00     0.49935    
 -31.00 -51.00     0.46066    
 -31.00 -50.00     0.42947    
 -31.00 -49.00     0.39832    
 -31.00 -48.00     0.35451    
 -31.00 -47.00     0.28473    
 -31.00 -46.00     0.17992    
 -31.00 -45.00     0.38780E-01
 -31.00 -44.00    -0.13062    
 -31.00 -43.00    -0.31177    
 -31.00 -42.00    -0.48347    
 -31.00 -41.00    -0.62449    
 -31.00 -40.00    -0.71854    
 -31.00 -39.00    -0.75796    
 -31.00 -38.00    -0.74535    
 -31.00 -37.00    -0.69255    
 -31.00 -36.00    -0.61747    
 -31.00 -35.00    -0.53955    
 -31.00 -34.00    -0.47506    
 -31.00 -33.00    -0.43329    
 -31.00 -32.00    -0.41476    
 -31.00 -31.00    -0.41157    
 -31.00 -30.00    -0.41002    
 -31.00 -29.00    -0.39464    
 -31.00 -28.00    -0.35270    
 -31.00 -27.00    -0.27802    
 -31.00 -26.00    -0.17327    
 -31.00 -25.00    -0.49934E-01
 -31.00 -24.00     0.73955E-01
 -31.00 -23.00     0.17786    
 -31.00 -22.00     0.24373    
 -31.00 -21.00     0.26053    
 -31.00 -20.00     0.22743    
 -31.00 -19.00     0.15448    
 -31.00 -18.00     0.60699E-01
 -31.00 -17.00    -0.30223E-01
 -31.00 -16.00    -0.95487E-01
 -31.00 -15.00    -0.11876    
 -31.00 -14.00    -0.94223E-01
 -31.00 -13.00    -0.28063E-01
 -31.00 -12.00     0.63172E-01
 -31.00 -11.00     0.15689    
 -31.00 -10.00     0.23042    
 -31.00  -9.00     0.26699    
 -31.00  -8.00     0.26010    
 -31.00  -7.00     0.21510    
 -31.00  -6.00     0.14755    
 -31.00  -5.00     0.78724E-01
 -31.00  -4.00     0.29775E-01
 -31.00  -3.00     0.16082E-01
 -31.00  -2.00     0.43465E-01
 -31.00  -1.00     0.10732    
 -31.00   0.00     0.19478    
 -31.00   1.00     0.28911    
 -31.00   2.00     0.37487    
 -31.00   3.00     0.44216    
 -31.00   4.00     0.48860    
 -31.00   5.00     0.51863    
 -31.00   6.00     0.54029    
 -31.00   7.00     0.56098    
 -31.00   8.00     0.58362    
 -31.00   9.00     0.60475    
 -31.00  10.00     0.61527    
 -31.00  11.00     0.60364    
 -31.00  12.00     0.56044    
 -31.00  13.00     0.48265    
 -31.00  14.00     0.37595    
 -31.00  15.00     0.25421    
 -31.00  16.00     0.13590    
 -31.00  17.00     0.38705E-01
 -31.00  18.00    -0.25974E-01
 -31.00  19.00    -0.56847E-01
 -31.00  20.00    -0.63305E-01
 -31.00  21.00    -0.62486E-01
 -31.00  22.00    -0.73624E-01
 -31.00  23.00    -0.11148    
 -31.00  24.00    -0.18105    
 -31.00  25.00    -0.27534    
 -31.00  26.00    -0.37715    
 -31.00  27.00    -0.46430    
 -31.00  28.00    -0.51679    
 -31.00  29.00    -0.52336    
 -31.00  30.00    -0.48533    
 -31.00  31.00    -0.41625    
 -31.00  32.00    -0.33747    
 -31.00  33.00    -0.27081    
 -31.00  34.00    -0.23095    
 -31.00  35.00    -0.22007    
 -31.00  36.00    -0.22670    
 -31.00  37.00    -0.22937    
 -31.00  38.00    -0.20413    
 -31.00  39.00    -0.13351    
 -31.00  40.00    -0.13971E-01
 -31.00  41.00     0.14077    
 -31.00  42.00     0.30190    
 -31.00  43.00     0.43277    
 -31.00  44.00     0.49930    
 -31.00  45.00     0.48040    
 -31.00  46.00     0.37473    
 -31.00  47.00     0.20262    
 -31.00  48.00     0.69665E-03
 -31.00  49.00    -0.18777    
 -31.00  50.00    -0.32478    
 -31.00  51.00    -0.38825    
 -31.00  52.00    -0.37785    
 -31.00  53.00    -0.31461    
 -31.00  54.00    -0.23410    
 -31.00  55.00    -0.17503    
 -31.00  56.00    -0.16767    
 -31.00  57.00    -0.22438    
 -31.00  58.00    -0.33570    
 -31.00  59.00    -0.47262    
 -31.00  60.00    -0.59587    
 -31.00  61.00    -0.66675    
 -31.00  62.00    -0.65885    
 -31.00  63.00    -0.56572    
 -31.00  64.00    -0.40350    
 -31.00  65.00    -0.20664    
 -31.00  66.00    -0.18885E-01
 -31.00  67.00     0.11769    
 -31.00  68.00     0.17372    
 -31.00  69.00     0.13877    
 -31.00  70.00     0.23854E-01
 -31.00  71.00    -0.14191    
 -31.00  72.00    -0.31971    
 -31.00  73.00    -0.46935    
 -31.00  74.00    -0.55810    
 -31.00  75.00    -0.56716    
 -31.00  76.00    -0.49525    
 -31.00  77.00    -0.35476    
 -31.00  78.00    -0.17066    
 -31.00  79.00     0.26334E-01
 -31.00  80.00     0.20586    
 -31.00  81.00     0.34157    
 -31.00  82.00     0.41604    
 -31.00  83.00     0.42111    
 -31.00  84.00     0.35985    
 -31.00  85.00     0.24540    
 -31.00  86.00     0.95805E-01
 -31.00  87.00    -0.64140E-01
 -31.00  88.00    -0.21072    
 -31.00  89.00    -0.32316    
 -30.00 -89.00     0.21684    
 -30.00 -88.00     0.20067    
 -30.00 -87.00     0.16323    
 -30.00 -86.00     0.10950    
 -30.00 -85.00     0.48835E-01
 -30.00 -84.00    -0.27553E-02
 -30.00 -83.00    -0.32291E-01
 -30.00 -82.00    -0.28366E-01
 -30.00 -81.00     0.10628E-01
 -30.00 -80.00     0.81364E-01
 -30.00 -79.00     0.17627    
 -30.00 -78.00     0.28416    
 -30.00 -77.00     0.39452    
 -30.00 -76.00     0.49900    
 -30.00 -75.00     0.59084    
 -30.00 -74.00     0.66452    
 -30.00 -73.00     0.71649    
 -30.00 -72.00     0.74095    
 -30.00 -71.00     0.73321    
 -30.00 -70.00     0.68912    
 -30.00 -69.00     0.60858    
 -30.00 -68.00     0.49630    
 -30.00 -67.00     0.36369    
 -30.00 -66.00     0.22785    
 -30.00 -65.00     0.10914    
 -30.00 -64.00     0.26796E-01
 -30.00 -63.00    -0.52403E-02
 -30.00 -62.00     0.18212E-01
 -30.00 -61.00     0.91560E-01
 -30.00 -60.00     0.19999    
 -30.00 -59.00     0.32252    
 -30.00 -58.00     0.43725    
 -30.00 -57.00     0.52636    
 -30.00 -56.00     0.57980    
 -30.00 -55.00     0.59681    
 -30.00 -54.00     0.58460    
 -30.00 -53.00     0.55421    
 -30.00 -52.00     0.51695    
 -30.00 -51.00     0.47897    
 -30.00 -50.00     0.43966    
 -30.00 -49.00     0.39186    
 -30.00 -48.00     0.32424    
 -30.00 -47.00     0.22611    
 -30.00 -46.00     0.92100E-01
 -30.00 -45.00    -0.74572E-01
 -30.00 -44.00    -0.26099    
 -30.00 -43.00    -0.44636    
 -30.00 -42.00    -0.60662    
 -30.00 -41.00    -0.72007    
 -30.00 -40.00    -0.77292    
 -30.00 -39.00    -0.76284    
 -30.00 -38.00    -0.69989    
 -30.00 -37.00    -0.60406    
 -30.00 -36.00    -0.50032    
 -30.00 -35.00    -0.41239    
 -30.00 -34.00    -0.35681    
 -30.00 -33.00    -0.33901    
 -30.00 -32.00    -0.35222    
 -30.00 -31.00    -0.37965    
 -30.00 -30.00    -0.39934    
 -30.00 -29.00    -0.39029    
 -30.00 -28.00    -0.33845    
 -30.00 -27.00    -0.24090    
 -30.00 -26.00    -0.10712    
 -30.00 -25.00     0.42887E-01
 -30.00 -24.00     0.18332    
 -30.00 -23.00     0.28884    
 -30.00 -22.00     0.34095    
 -30.00 -21.00     0.33268    
 -30.00 -20.00     0.27060    
 -30.00 -19.00     0.17343    
 -30.00 -18.00     0.67584E-01
 -30.00 -17.00    -0.19161E-01
 -30.00 -16.00    -0.64490E-01
 -30.00 -15.00    -0.56964E-01
 -30.00 -14.00     0.12509E-02
 -30.00 -13.00     0.95115E-01
 -30.00 -12.00     0.20072    
 -30.00 -11.00     0.29157    
 -30.00 -10.00     0.34545    
 -30.00  -9.00     0.35012    
 -30.00  -8.00     0.30637    
 -30.00  -7.00     0.22750    
 -30.00  -6.00     0.13555    
 -30.00  -5.00     0.55290E-01
 -30.00  -4.00     0.76499E-02
 -30.00  -3.00     0.44581E-02
 -30.00  -2.00     0.45882E-01
 -30.00  -1.00     0.12124    
 -30.00   0.00     0.21279    
 -30.00   1.00     0.30127    
 -30.00   2.00     0.37147    
 -30.00   3.00     0.41610    
 -30.00   4.00     0.43679    
 -30.00   5.00     0.44219    
 -30.00   6.00     0.44370    
 -30.00   7.00     0.45053    
 -30.00   8.00     0.46567    
 -30.00   9.00     0.48431    
 -30.00  10.00     0.49516    
 -30.00  11.00     0.48436    
 -30.00  12.00     0.44052    
 -30.00  13.00     0.35933    
 -30.00  14.00     0.24590    
 -30.00  15.00     0.11409    
 -30.00  16.00    -0.17185E-01
 -30.00  17.00    -0.12949    
 -30.00  18.00    -0.21043    
 -30.00  19.00    -0.25735    
 -30.00  20.00    -0.27795    
 -30.00  21.00    -0.28740    
 -30.00  22.00    -0.30296    
 -30.00  23.00    -0.33778    
 -30.00  24.00    -0.39603    
 -30.00  25.00    -0.47109    
 -30.00  26.00    -0.54737    
 -30.00  27.00    -0.60541    
 -30.00  28.00    -0.62848    
 -30.00  29.00    -0.60846    
 -30.00  30.00    -0.54893    
 -30.00  31.00    -0.46437    
 -30.00  32.00    -0.37541    
 -30.00  33.00    -0.30185    
 -30.00  34.00    -0.25559    
 -30.00  35.00    -0.23611    
