 131.00 -82.00     0.29889    
 131.00 -81.00     0.33776    
 131.00 -80.00     0.40125    
 131.00 -79.00     0.46811    
 131.00 -78.00     0.51221    
 131.00 -77.00     0.51020    
 131.00 -76.00     0.45235    
 131.00 -75.00     0.34730    
 131.00 -74.00     0.22301    
 131.00 -73.00     0.11888    
 131.00 -72.00     0.79146E-01
 131.00 -71.00     0.13601    
 131.00 -70.00     0.29930    
 131.00 -69.00     0.54872    
 131.00 -68.00     0.83727    
 131.00 -67.00      1.1002    
 131.00 -66.00      1.2717    
 131.00 -65.00      1.3038    
 131.00 -64.00      1.1801    
 131.00 -63.00     0.92368    
 131.00 -62.00     0.59236    
 131.00 -61.00     0.26481    
 131.00 -60.00     0.20281E-01
 131.00 -59.00    -0.81844E-01
 131.00 -58.00    -0.18149E-01
 131.00 -57.00     0.19382    
 131.00 -56.00     0.50137    
 131.00 -55.00     0.83209    
 131.00 -54.00      1.1150    
 131.00 -53.00      1.2996    
 131.00 -52.00      1.3677    
 131.00 -51.00      1.3355    
 131.00 -50.00      1.2446    
 131.00 -49.00      1.1460    
 131.00 -48.00      1.0812    
 131.00 -47.00      1.0697    
 131.00 -46.00      1.1027    
 131.00 -45.00      1.1479    
 131.00 -44.00      1.1626    
 131.00 -43.00      1.1104    
 131.00 -42.00     0.97518    
 131.00 -41.00     0.76842    
 131.00 -40.00     0.52682    
 131.00 -39.00     0.30111    
 131.00 -38.00     0.14001    
 131.00 -37.00     0.74527E-01
 131.00 -36.00     0.10815    
 131.00 -35.00     0.21602    
 131.00 -34.00     0.35346    
 131.00 -33.00     0.47081    
 131.00 -32.00     0.52966    
 131.00 -31.00     0.51490    
 131.00 -30.00     0.43882    
 131.00 -29.00     0.33588    
 131.00 -28.00     0.25024    
 131.00 -27.00     0.22037    
 131.00 -26.00     0.26611    
 131.00 -25.00     0.38229    
 131.00 -24.00     0.54106    
 131.00 -23.00     0.70168    
 131.00 -22.00     0.82417    
 131.00 -21.00     0.88189    
 131.00 -20.00     0.86876    
 131.00 -19.00     0.79894    
 131.00 -18.00     0.69932    
 131.00 -17.00     0.59827    
 131.00 -16.00     0.51488    
 131.00 -15.00     0.45305    
 131.00 -14.00     0.40263    
 131.00 -13.00     0.34713    
 131.00 -12.00     0.27478    
 131.00 -11.00     0.18844    
 131.00 -10.00     0.10979    
 131.00  -9.00     0.75625E-01
 131.00  -8.00     0.12643    
 131.00  -7.00     0.29112    
 131.00  -6.00     0.57301    
 131.00  -5.00     0.94257    
 131.00  -4.00      1.3403    
 131.00  -3.00      1.6900    
 131.00  -2.00      1.9186    
 131.00  -1.00      1.9774    
 131.00   0.00      1.8570    
 131.00   1.00      1.5921    
 131.00   2.00      1.2526    
 131.00   3.00     0.92486    
 131.00   4.00     0.68813    
 131.00   5.00     0.59261    
 131.00   6.00     0.64695    
 131.00   7.00     0.81810    
 131.00   8.00      1.0436    
 131.00   9.00      1.2519    
 131.00  10.00      1.3843    
 131.00  11.00      1.4110    
 131.00  12.00      1.3375    
 131.00  13.00      1.1984    
 131.00  14.00      1.0427    
 131.00  15.00     0.91531    
 131.00  16.00     0.84186    
 131.00  17.00     0.82167    
 131.00  18.00     0.83133    
 131.00  19.00     0.83689    
 131.00  20.00     0.80996    
 131.00  21.00     0.74144    
 131.00  22.00     0.64746    
 131.00  23.00     0.56503    
 131.00  24.00     0.53875    
 131.00  25.00     0.60311    
 131.00  26.00     0.76717    
 131.00  27.00      1.0073    
 131.00  28.00      1.2716    
 131.00  29.00      1.4952    
 131.00  30.00      1.6216    
 131.00  31.00      1.6240    
 131.00  32.00      1.5176    
 131.00  33.00      1.3596    
 131.00  34.00      1.2354    
 131.00  35.00      1.2337    
 131.00  36.00      1.4196    
 131.00  37.00      1.8123    
 131.00  38.00      2.3748    
 131.00  39.00      3.0206    
 131.00  40.00      3.6335    
 131.00  41.00      4.0966    
 131.00  42.00      4.3221    
 131.00  43.00      4.2724    
 131.00  44.00      3.9678    
 131.00  45.00      3.4792    
 131.00  46.00      2.9065    
 131.00  47.00      2.3536    
 131.00  48.00      1.9023    
 131.00  49.00      1.5967    
 131.00  50.00      1.4391    
 131.00  51.00      1.3973    
 131.00  52.00      1.4209    
 131.00  53.00      1.4591    
 131.00  54.00      1.4757    
 131.00  55.00      1.4554    
 131.00  56.00      1.4028    
 131.00  57.00      1.3338    
 131.00  58.00      1.2648    
 131.00  59.00      1.2055    
 131.00  60.00      1.1537    
 131.00  61.00      1.1005    
 131.00  62.00      1.0359    
 131.00  63.00     0.95805    
 131.00  64.00     0.87759    
 131.00  65.00     0.81778    
 131.00  66.00     0.80695    
 131.00  67.00     0.86779    
 131.00  68.00      1.0068    
 131.00  69.00      1.2058    
 131.00  70.00      1.4237    
 131.00  71.00      1.6017    
 131.00  72.00      1.6811    
 131.00  73.00      1.6177    
 131.00  74.00      1.3961    
 131.00  75.00      1.0365    
 131.00  76.00     0.59331    
 131.00  77.00     0.14116    
 131.00  78.00    -0.24131    
 131.00  79.00    -0.48858    
 131.00  80.00    -0.56787    
 131.00  81.00    -0.48120    
 131.00  82.00    -0.26707    
 131.00  83.00     0.12190E-01
 131.00  84.00     0.28397    
 131.00  85.00     0.48354    
 131.00  86.00     0.56829    
 131.00  87.00     0.52173    
 131.00  88.00     0.36002    
 131.00  89.00     0.11828    
 132.00 -89.00     0.63624    
 132.00 -88.00     0.59194    
 132.00 -87.00     0.53115    
 132.00 -86.00     0.45861    
 132.00 -85.00     0.38188    
 132.00 -84.00     0.31786    
 132.00 -83.00     0.28017    
 132.00 -82.00     0.28392    
 132.00 -81.00     0.32395    
 132.00 -80.00     0.38972    
 132.00 -79.00     0.45958    
 132.00 -78.00     0.50708    
 132.00 -77.00     0.50858    
 132.00 -76.00     0.45452    
 132.00 -75.00     0.35389    
 132.00 -74.00     0.23505    
 132.00 -73.00     0.13741    
 132.00 -72.00     0.10495    
 132.00 -71.00     0.16894    
 132.00 -70.00     0.33789    
 132.00 -69.00     0.59061    
 132.00 -68.00     0.87944    
 132.00 -67.00      1.1399    
 132.00 -66.00      1.3075    
 132.00 -65.00      1.3359    
 132.00 -64.00      1.2109    
 132.00 -63.00     0.95677    
 132.00 -62.00     0.63174    
 132.00 -61.00     0.31369    
 132.00 -60.00     0.80077E-01
 132.00 -59.00    -0.11829E-01
 132.00 -58.00     0.59842E-01
 132.00 -57.00     0.27713    
 132.00 -56.00     0.58844    
 132.00 -55.00     0.92338    
 132.00 -54.00      1.2134    
 132.00 -53.00      1.4093    
 132.00 -52.00      1.4925    
 132.00 -51.00      1.4760    
 132.00 -50.00      1.3967    
 132.00 -49.00      1.2997    
 132.00 -48.00      1.2222    
 132.00 -47.00      1.1819    
 132.00 -46.00      1.1722    
 132.00 -45.00      1.1679    
 132.00 -44.00      1.1359    
 132.00 -43.00      1.0507    
 132.00 -42.00     0.90484    
 132.00 -41.00     0.71407    
 132.00 -40.00     0.51328    
 132.00 -39.00     0.34544    
 132.00 -38.00     0.24720    
 132.00 -37.00     0.23629    
 132.00 -36.00     0.30513    
 132.00 -35.00     0.42303    
 132.00 -34.00     0.54627    
 132.00 -33.00     0.63273    
 132.00 -32.00     0.65598    
 132.00 -31.00     0.61404    
 132.00 -30.00     0.52985    
 132.00 -29.00     0.44308    
 132.00 -28.00     0.39637    
 132.00 -27.00     0.42043    
 132.00 -26.00     0.52325    
 132.00 -25.00     0.68703    
 132.00 -24.00     0.87371    
 132.00 -23.00      1.0372    
 132.00 -22.00      1.1379    
 132.00 -21.00      1.1547    
 132.00 -20.00      1.0902    
 132.00 -19.00     0.96785    
 132.00 -18.00     0.82225    
 132.00 -17.00     0.68633    
 132.00 -16.00     0.58047    
 132.00 -15.00     0.50727    
 132.00 -14.00     0.45407    
 132.00 -13.00     0.40199    
 132.00 -12.00     0.33773    
 132.00 -11.00     0.26351    
 132.00 -10.00     0.20057    
 132.00  -9.00     0.18443    
 132.00  -8.00     0.25288    
 132.00  -7.00     0.43060    
 132.00  -6.00     0.71611    
 132.00  -5.00      1.0760    
 132.00  -4.00      1.4493    
 132.00  -3.00      1.7624    
 132.00  -2.00      1.9486    
 132.00  -1.00      1.9682    
 132.00   0.00      1.8216    
 132.00   1.00      1.5505    
 132.00   2.00      1.2277    
 132.00   3.00     0.93606    
 132.00   4.00     0.74575    
 132.00   5.00     0.69430    
 132.00   6.00     0.77727    
 132.00   7.00     0.95168    
 132.00   8.00      1.1511    
 132.00   9.00      1.3072    
 132.00  10.00      1.3712    
 132.00  11.00      1.3275    
 132.00  12.00      1.1963    
 132.00  13.00      1.0239    
 132.00  14.00     0.86518    
 132.00  15.00     0.76421    
 132.00  16.00     0.73946    
 132.00  17.00     0.77933    
 132.00  18.00     0.84868    
 132.00  19.00     0.90401    
 132.00  20.00     0.91161    
 132.00  21.00     0.86170    
 132.00  22.00     0.77351    
 132.00  23.00     0.68897    
 132.00  24.00     0.65715    
 132.00  25.00     0.71487    
 132.00  26.00     0.87066    
 132.00  27.00      1.0981    
 132.00  28.00      1.3415    
 132.00  29.00      1.5334    
 132.00  30.00      1.6174    
 132.00  31.00      1.5699    
 132.00  32.00      1.4123    
 132.00  33.00      1.2097    
 132.00  34.00      1.0548    
 132.00  35.00      1.0414    
 132.00  36.00      1.2361    
 132.00  37.00      1.6554    
 132.00  38.00      2.2570    
 132.00  39.00      2.9475    
 132.00  40.00      3.6039    
 132.00  41.00      4.1046    
 132.00  42.00      4.3595    
 132.00  43.00      4.3316    
 132.00  44.00      4.0431    
 132.00  45.00      3.5672    
 132.00  46.00      3.0056    
 132.00  47.00      2.4622    
 132.00  48.00      2.0177    
 132.00  49.00      1.7142    
 132.00  50.00      1.5524    
 132.00  51.00      1.4996    
 132.00  52.00      1.5069    
 132.00  53.00      1.5269    
 132.00  54.00      1.5279    
 132.00  55.00      1.4988    
 132.00  56.00      1.4471    
 132.00  57.00      1.3889    
 132.00  58.00      1.3387    
 132.00  59.00      1.3014    
 132.00  60.00      1.2692    
 132.00  61.00      1.2280    
 132.00  62.00      1.1641    
 132.00  63.00      1.0746    
 132.00  64.00     0.97217    
 132.00  65.00     0.88434    
 132.00  66.00     0.84498    
 132.00  67.00     0.88221    
 132.00  68.00      1.0065    
 132.00  69.00      1.2015    
 132.00  70.00      1.4254    
 132.00  71.00      1.6163    
 132.00  72.00      1.7117    
 132.00  73.00      1.6629    
 132.00  74.00      1.4512    
 132.00  75.00      1.0946    
 132.00  76.00     0.64744    
 132.00  77.00     0.18576    
 132.00  78.00    -0.20961    
 132.00  79.00    -0.47054    
 132.00  80.00    -0.56190    
 132.00  81.00    -0.48437    
 132.00  82.00    -0.27581    
 132.00  83.00     0.12543E-02
 132.00  84.00     0.27335    
 132.00  85.00     0.47396    
 132.00  86.00     0.56081    
 132.00  87.00     0.51634    
 132.00  88.00     0.35661    
 132.00  89.00     0.11670    
 133.00 -89.00     0.63592    
 133.00 -88.00     0.59031    
 133.00 -87.00     0.52732    
 133.00 -86.00     0.45184    
 133.00 -85.00     0.37181    
 133.00 -84.00     0.30471    
 133.00 -83.00     0.26512    
 133.00 -82.00     0.26818    
 133.00 -81.00     0.30900    
 133.00 -80.00     0.37672    
 133.00 -79.00     0.44945    
 133.00 -78.00     0.50049    
 133.00 -77.00     0.50602    
 133.00 -76.00     0.45655    
 133.00 -75.00     0.36121    
 133.00 -74.00     0.24853    
 133.00 -73.00     0.15760    
 133.00 -72.00     0.13189    
 133.00 -71.00     0.20172    
 133.00 -70.00     0.37427    
 133.00 -69.00     0.62776    
 133.00 -68.00     0.91427    
 133.00 -67.00      1.1701    
 133.00 -66.00      1.3321    
 133.00 -65.00      1.3562    
 133.00 -64.00      1.2297    
 133.00 -63.00     0.97815    
 133.00 -62.00     0.65941    
 133.00 -61.00     0.35009    
 133.00 -60.00     0.12542    
 133.00 -59.00     0.40381E-01
 133.00 -58.00     0.11541    
 133.00 -57.00     0.33252    
 133.00 -56.00     0.64170    
 133.00 -55.00     0.97526    
 133.00 -54.00      1.2676    
 133.00 -53.00      1.4712    
 133.00 -52.00      1.5671    
 133.00 -51.00      1.5655    
 133.00 -50.00      1.4984    
 133.00 -49.00      1.4048    
 133.00 -48.00      1.3173    
 133.00 -47.00      1.2516    
 133.00 -46.00      1.2035    
 133.00 -45.00      1.1539    
 133.00 -44.00      1.0797    
 133.00 -43.00     0.96549    
 133.00 -42.00     0.81256    
 133.00 -41.00     0.64070    
 133.00 -40.00     0.48302    
 133.00 -39.00     0.37492    
 133.00 -38.00     0.34124    
 133.00 -37.00     0.38665    
 133.00 -36.00     0.49266    
 133.00 -35.00     0.62265    
 133.00 -34.00     0.73361    
 133.00 -33.00     0.79055    
 133.00 -32.00     0.77866    
 133.00 -31.00     0.70894    
 133.00 -30.00     0.61511    
 133.00 -29.00     0.54267    
 133.00 -28.00     0.53356    
 133.00 -27.00     0.61163    
 133.00 -26.00     0.77377    
 133.00 -25.00     0.98973    
 133.00 -24.00      1.2108    
 133.00 -23.00      1.3846    
 133.00 -22.00      1.4703    
 133.00 -21.00      1.4511    
 133.00 -20.00      1.3373    
 133.00 -19.00      1.1613    
 133.00 -18.00     0.96619    
 133.00 -17.00     0.79096    
 133.00 -16.00     0.65901    
 133.00 -15.00     0.57319    
 133.00 -14.00     0.51908    
 133.00 -13.00     0.47492    
 133.00 -12.00     0.42425    
 133.00 -11.00     0.36611    
 133.00 -10.00     0.31854    
 133.00  -9.00     0.31371    
 133.00  -8.00     0.38592    
 133.00  -7.00     0.55669    
 133.00  -6.00     0.82250    
 133.00  -5.00      1.1501    
 133.00  -4.00      1.4817    
 133.00  -3.00      1.7497    
 133.00  -2.00      1.8961    
 133.00  -1.00      1.8903    
 133.00   0.00      1.7399    
 133.00   1.00      1.4902    
 133.00   2.00      1.2115    
 133.00   3.00     0.97875    
 133.00   4.00     0.84967    
 133.00   5.00     0.84753    
 133.00   6.00     0.95523    
 133.00   7.00      1.1219    
 133.00   8.00      1.2801    
 133.00   9.00      1.3681    
 133.00  10.00      1.3496    
 133.00  11.00      1.2245    
 133.00  12.00      1.0284    
 133.00  13.00     0.81885    
 133.00  14.00     0.65615    
 133.00  15.00     0.58272    
 133.00  16.00     0.60983    
 133.00  17.00     0.71523    
 133.00  18.00     0.85264    
 133.00  19.00     0.96958    
 133.00  20.00      1.0270    
 133.00  21.00      1.0138    
 133.00  22.00     0.95081    
 133.00  23.00     0.88294    
 133.00  24.00     0.86167    
 133.00  25.00     0.92448    
 133.00  26.00      1.0784    
 133.00  27.00      1.2940    
 133.00  28.00      1.5129    
 133.00  29.00      1.6657    
 133.00  30.00      1.6973    
 133.00  31.00      1.5879    
 133.00  32.00      1.3654    
 133.00  33.00      1.1022    
 133.00  34.00     0.89733    
 133.00  35.00     0.84928    
 133.00  36.00      1.0260    
 133.00  37.00      1.4428    
 133.00  38.00      2.0541    
 133.00  39.00      2.7621    
 133.00  40.00      3.4404    
 133.00  41.00      3.9653    
 133.00  42.00      4.2460    
 133.00  43.00      4.2461    
 133.00  44.00      3.9888    
 133.00  45.00      3.5470    
 133.00  46.00      3.0210    
 133.00  47.00      2.5114    
 133.00  48.00      2.0953    
 133.00  49.00      1.8106    
 133.00  50.00      1.6556    
 133.00  51.00      1.5977    
 133.00  52.00      1.5905    
 133.00  53.00      1.5914    
 133.00  54.00      1.5747    
 133.00  55.00      1.5345    
 133.00  56.00      1.4819    
 133.00  57.00      1.4338    
 133.00  58.00      1.4022    
 133.00  59.00      1.3875    
 133.00  60.00      1.3757    
 133.00  61.00      1.3471    
 133.00  62.00      1.2845    
 133.00  63.00      1.1839    
 133.00  64.00      1.0597    
 133.00  65.00     0.94388    
 133.00  66.00     0.87574    
 133.00  67.00     0.88886    
 133.00  68.00     0.99785    
 133.00  69.00      1.1880    
 133.00  70.00      1.4171    
 133.00  71.00      1.6208    
 133.00  72.00      1.7322    
 133.00  73.00      1.6986    
 133.00  74.00      1.4979    
 133.00  75.00      1.1460    
 133.00  76.00     0.69675    
 133.00  77.00     0.22736    
 133.00  78.00    -0.17933    
 133.00  79.00    -0.45281    
 133.00  80.00    -0.55559    
 133.00  81.00    -0.48698    
 133.00  82.00    -0.28403    
 133.00  83.00    -0.93779E-02
 133.00  84.00     0.26279    
 133.00  85.00     0.46435    
 133.00  86.00     0.55321    
 133.00  87.00     0.51081    
 133.00  88.00     0.35309    
 133.00  89.00     0.11504    
 134.00 -89.00     0.63558    
 134.00 -88.00     0.58865    
 134.00 -87.00     0.52341    
 134.00 -86.00     0.44497    
 134.00 -85.00     0.36161    
 134.00 -84.00     0.29131    
 134.00 -83.00     0.24975    
 134.00 -82.00     0.25168    
 134.00 -81.00     0.29288    
 134.00 -80.00     0.36218    
 134.00 -79.00     0.43765    
 134.00 -78.00     0.49235    
 134.00 -77.00     0.50236    
 134.00 -76.00     0.45821    
 134.00 -75.00     0.36896    
 134.00 -74.00     0.26300    
 134.00 -73.00     0.17885    
 134.00 -72.00     0.15916    
 134.00 -71.00     0.23334    
 134.00 -70.00     0.40723    
 134.00 -69.00     0.65876    
 134.00 -68.00     0.94018    
 134.00 -67.00      1.1889    
 134.00 -66.00      1.3436    
 134.00 -65.00      1.3623    
 134.00 -64.00      1.2338    
 134.00 -63.00     0.98458    
 134.00 -62.00     0.67160    
 134.00 -61.00     0.36975    
 134.00 -60.00     0.15165    
 134.00 -59.00     0.69882E-01
 134.00 -58.00     0.14358    
 134.00 -57.00     0.35503    
 134.00 -56.00     0.65634    
 134.00 -55.00     0.98298    
 134.00 -54.00      1.2727    
 134.00 -53.00      1.4801    
 134.00 -52.00      1.5862    
 134.00 -51.00      1.5984    
 134.00 -50.00      1.5436    
 134.00 -49.00      1.4552    
 134.00 -48.00      1.3610    
 134.00 -47.00      1.2745    
 134.00 -46.00      1.1935    
 134.00 -45.00      1.1048    
 134.00 -44.00     0.99421    
 134.00 -43.00     0.85628    
 134.00 -42.00     0.70012    
 134.00 -41.00     0.54933    
 134.00 -40.00     0.43524    
 134.00 -39.00     0.38594    
 134.00 -38.00     0.41507    
 134.00 -37.00     0.51489    
 134.00 -36.00     0.65644    
 134.00 -35.00     0.79739    
 134.00 -34.00     0.89520    
 134.00 -33.00     0.92145    
 134.00 -32.00     0.87229    
 134.00 -31.00     0.77116    
 134.00 -30.00     0.66245    
 134.00 -29.00     0.59792    
 134.00 -28.00     0.61982    
 134.00 -27.00     0.74650    
 134.00 -26.00     0.96508    
 134.00 -25.00      1.2339    
 134.00 -24.00      1.4938    
 134.00 -23.00      1.6855    
 134.00 -22.00      1.7661    
 134.00 -21.00      1.7210    
 134.00 -20.00      1.5667    
 134.00 -19.00      1.3439    
 134.00 -18.00      1.1036    
 134.00 -17.00     0.89137    
 134.00 -16.00     0.73463    
 134.00 -15.00     0.63759    
 134.00 -14.00     0.58470    
 134.00 -13.00     0.55123    
 134.00 -12.00     0.51650    
 134.00 -11.00     0.47466    
 134.00 -10.00     0.43872    
 134.00  -9.00     0.43616    
 134.00  -8.00     0.49757    
 134.00  -7.00     0.64253    
 134.00  -6.00     0.86810    
 134.00  -5.00      1.1447    
 134.00  -4.00      1.4213    
 134.00  -3.00      1.6395    
 134.00  -2.00      1.7508    
 134.00  -1.00      1.7331    
 134.00   0.00      1.5989    
 134.00   1.00      1.3928    
 134.00   2.00      1.1789    
 134.00   3.00      1.0205    
 134.00   4.00     0.96078    
 134.00   5.00      1.0085    
 134.00   6.00      1.1355    
 134.00   7.00      1.2856    
 134.00   8.00      1.3937    
 134.00   9.00      1.4070    
 134.00  10.00      1.3033    
 134.00  11.00      1.0983    
 134.00  12.00     0.84160    
 134.00  13.00     0.60052    
 134.00  14.00     0.43866    
 134.00  15.00     0.39574    
 134.00  16.00     0.47554    
 134.00  17.00     0.64599    
 134.00  18.00     0.85118    
 134.00  19.00      1.0313    
 134.00  20.00      1.1432    
 134.00  21.00      1.1749    
 134.00  22.00      1.1484    
 134.00  23.00      1.1101    
 134.00  24.00      1.1123    
 134.00  25.00      1.1914    
 134.00  26.00      1.3518    
 134.00  27.00      1.5609    
 134.00  28.00      1.7572    
 134.00  29.00      1.8707    
 134.00  30.00      1.8476    
 134.00  31.00      1.6724    
 134.00  32.00      1.3788    
 134.00  33.00      1.0454    
 134.00  34.00     0.77700    
 134.00  35.00     0.67560    
 134.00  36.00     0.81079    
 134.00  37.00      1.1977    
 134.00  38.00      1.7895    
 134.00  39.00      2.4874    
 134.00  40.00      3.1647    
 134.00  41.00      3.6983    
 134.00  42.00      3.9989    
 134.00  43.00      4.0311    
 134.00  44.00      3.8174    
 134.00  45.00      3.4285    
 134.00  46.00      2.9602    
 134.00  47.00      2.5067    
 134.00  48.00      2.1382    
 134.00  49.00      1.8871    
 134.00  50.00      1.7487    
 134.00  51.00      1.6905    
 134.00  52.00      1.6697    
 134.00  53.00      1.6501    
 134.00  54.00      1.6129    
 134.00  55.00      1.5589    
 134.00  56.00      1.5034    
 134.00  57.00      1.4642    
 134.00  58.00      1.4510    
 134.00  59.00      1.4592    
 134.00  60.00      1.4686    
 134.00  61.00      1.4538    
 134.00  62.00      1.3937    
 134.00  63.00      1.2831    
 134.00  64.00      1.1383    
 134.00  65.00     0.99524    
 134.00  66.00     0.89887    
 134.00  67.00     0.88801    
 134.00  68.00     0.98137    
 134.00  69.00      1.1662    
 134.00  70.00      1.3998    
 134.00  71.00      1.6155    
 134.00  72.00      1.7427    
 134.00  73.00      1.7248    
 134.00  74.00      1.5361    
 134.00  75.00      1.1905    
 134.00  76.00     0.74090    
 134.00  77.00     0.26563    
 134.00  78.00    -0.15073    
 134.00  79.00    -0.43556    
 134.00  80.00    -0.54903    
 134.00  81.00    -0.48904    
 134.00  82.00    -0.29173    
 134.00  83.00    -0.19682E-01
 134.00  84.00     0.25229    
 134.00  85.00     0.45472    
 134.00  86.00     0.54550    
 134.00  87.00     0.50517    
 134.00  88.00     0.34946    
 134.00  89.00     0.11332    
 135.00 -89.00     0.63524    
 135.00 -88.00     0.58695    
 135.00 -87.00     0.51945    
 135.00 -86.00     0.43800    
 135.00 -85.00     0.35128    
 135.00 -84.00     0.27770    
 135.00 -83.00     0.23406    
 135.00 -82.00     0.23441    
 135.00 -81.00     0.27556    
 135.00 -80.00     0.34605    
 135.00 -79.00     0.42410    
 135.00 -78.00     0.48254    
 135.00 -77.00     0.49744    
 135.00 -76.00     0.45923    
 135.00 -75.00     0.37675    
 135.00 -74.00     0.27794    
 135.00 -73.00     0.20047    
 135.00 -72.00     0.18591    
 135.00 -71.00     0.26277    
 135.00 -70.00     0.43560    
 135.00 -69.00     0.68233    
 135.00 -68.00     0.95577    
 135.00 -67.00      1.1948    
 135.00 -66.00      1.3404    
 135.00 -65.00      1.3524    
 135.00 -64.00      1.2213    
 135.00 -63.00     0.97382    
 135.00 -62.00     0.66585    
 135.00 -61.00     0.37001    
 135.00 -60.00     0.15608    
 135.00 -59.00     0.74164E-01
 135.00 -58.00     0.14221    
 135.00 -57.00     0.34311    
 135.00 -56.00     0.63142    
 135.00 -55.00     0.94628    
 135.00 -54.00      1.2290    
 135.00 -53.00      1.4367    
 135.00 -52.00      1.5505    
 135.00 -51.00      1.5751    
 135.00 -50.00      1.5330    
 135.00 -49.00      1.4518    
 135.00 -48.00      1.3545    
 135.00 -47.00      1.2527    
 135.00 -46.00      1.1454    
 135.00 -45.00      1.0250    
 135.00 -44.00     0.88538    
 135.00 -43.00     0.72967    
 135.00 -42.00     0.57413    
 135.00 -41.00     0.44560    
 135.00 -40.00     0.37358    
 135.00 -39.00     0.37932    
 135.00 -38.00     0.46609    
 135.00 -37.00     0.61473    
 135.00 -36.00     0.78673    
 135.00 -35.00     0.93439    
 135.00 -34.00      1.0155    
 135.00 -33.00      1.0077    
 135.00 -32.00     0.91689    
 135.00 -31.00     0.77819    
 135.00 -30.00     0.64621    
 135.00 -29.00     0.57922    
 135.00 -28.00     0.62087    
 135.00 -27.00     0.78569    
 135.00 -26.00      1.0530    
 135.00 -25.00      1.3712    
 135.00 -24.00      1.6720    
 135.00 -23.00      1.8890    
 135.00 -22.00      1.9761    
 135.00 -21.00      1.9195    
 135.00 -20.00      1.7398    
 135.00 -19.00      1.4839    
 135.00 -18.00      1.2097    
 135.00 -17.00     0.96902    
 135.00 -16.00     0.79365    
 135.00 -15.00     0.68982    
 135.00 -14.00     0.64152    
 135.00 -13.00     0.62126    
 135.00 -12.00     0.60378    
 135.00 -11.00     0.57743    
 135.00 -10.00     0.54911    
 135.00  -9.00     0.54084    
 135.00  -8.00     0.57954    
 135.00  -7.00     0.68393    
 135.00  -6.00     0.85376    
 135.00  -5.00      1.0657    
 135.00  -4.00      1.2783    
 135.00  -3.00      1.4437    
 135.00  -2.00      1.5238    
 135.00  -1.00      1.5040    
 135.00   0.00      1.3989    
 135.00   1.00      1.2498    
 135.00   2.00      1.1110    
 135.00   3.00      1.0324    
 135.00   4.00      1.0422    
 135.00   5.00      1.1356    
 135.00   6.00      1.2757    
 135.00   7.00      1.4046    
 135.00   8.00      1.4620    
 135.00   9.00      1.4059    
 135.00  10.00      1.2282    
 135.00  11.00     0.95889    
 135.00  12.00     0.65882    
 135.00  13.00     0.40151    
 135.00  14.00     0.25110    
 135.00  15.00     0.24278    
 135.00  16.00     0.37263    
 135.00  17.00     0.60007    
 135.00  18.00     0.86202    
 135.00  19.00      1.0942    
 135.00  20.00      1.2518    
 135.00  21.00      1.3238    
 135.00  22.00      1.3336    
 135.00  23.00      1.3288    
 135.00  24.00      1.3611    
 135.00  25.00      1.4644    
 135.00  26.00      1.6394    
 135.00  27.00      1.8495    
 135.00  28.00      2.0304    
 135.00  29.00      2.1110    
 135.00  30.00      2.0394    
 135.00  31.00      1.8035    
 135.00  32.00      1.4419    
 135.00  33.00      1.0382    
 135.00  34.00     0.70104    
 135.00  35.00     0.53516    
 135.00  36.00     0.61147    
 135.00  37.00     0.94583    
 135.00  38.00      1.4925    
 135.00  39.00      2.1546    
 135.00  40.00      2.8085    
 135.00  41.00      3.3348    
 135.00  42.00      3.6475    
 135.00  43.00      3.7125    
 135.00  44.00      3.5515    
 135.00  45.00      3.2303    
 135.00  46.00      2.8375    
 135.00  47.00      2.4580    
 135.00  48.00      2.1530    
 135.00  49.00      1.9475    
 135.00  50.00      1.8331    
 135.00  51.00      1.7777    
 135.00  52.00      1.7432    
 135.00  53.00      1.7008    
 135.00  54.00      1.6402    
 135.00  55.00      1.5695    
 135.00  56.00      1.5087    
 135.00  57.00      1.4770    
 135.00  58.00      1.4816    
 135.00  59.00      1.5129    
 135.00  60.00      1.5444    
 135.00  61.00      1.5446    
 135.00  62.00      1.4886    
 135.00  63.00      1.3698    
 135.00  64.00      1.2062    
 135.00  65.00      1.0377    
 135.00  66.00     0.91440    
 135.00  67.00     0.88023    
 135.00  68.00     0.95800    
 135.00  69.00      1.1369    
 135.00  70.00      1.3742    
 135.00  71.00      1.6012    
 135.00  72.00      1.7438    
 135.00  73.00      1.7416    
 135.00  74.00      1.5658    
 135.00  75.00      1.2278    
 135.00  76.00     0.77959    
 135.00  77.00     0.30031    
 135.00  78.00    -0.12401    
 135.00  79.00    -0.41893    
 135.00  80.00    -0.54228    
 135.00  81.00    -0.49056    
 135.00  82.00    -0.29886    
 135.00  83.00    -0.29632E-01
 135.00  84.00     0.24187    
 135.00  85.00     0.44510    
 135.00  86.00     0.53770    
 135.00  87.00     0.49940    
 135.00  88.00     0.34572    
 135.00  89.00     0.11154    
 136.00 -89.00     0.63488    
 136.00 -88.00     0.58521    
 136.00 -87.00     0.51543    
 136.00 -86.00     0.43094    
 136.00 -85.00     0.34084    
 136.00 -84.00     0.26390    
 136.00 -83.00     0.21805    
 136.00 -82.00     0.21636    
 136.00 -81.00     0.25701    
 136.00 -80.00     0.32830    
 136.00 -79.00     0.40873    
 136.00 -78.00     0.47093    
 136.00 -77.00     0.49104    
 136.00 -76.00     0.45932    
 136.00 -75.00     0.38416    
 136.00 -74.00     0.29277    
 136.00 -73.00     0.22174    
 136.00 -72.00     0.21128    
 136.00 -71.00     0.28900    
 136.00 -70.00     0.45828    
 136.00 -69.00     0.69734    
 136.00 -68.00     0.95994    
 136.00 -67.00      1.1868    
 136.00 -66.00      1.3214    
 136.00 -65.00      1.3254    
 136.00 -64.00      1.1910    
 136.00 -63.00     0.94481    
 136.00 -62.00     0.64112    
 136.00 -61.00     0.35001    
 136.00 -60.00     0.13819    
 136.00 -59.00     0.53244E-01
 136.00 -58.00     0.11212    
 136.00 -57.00     0.29856    
 136.00 -56.00     0.56987    
 136.00 -55.00     0.86915    
 136.00 -54.00      1.1416    
 136.00 -53.00      1.3468    
 136.00 -52.00      1.4662    
 136.00 -51.00      1.5025    
 136.00 -50.00      1.4734    
 136.00 -49.00      1.4015    
 136.00 -48.00      1.3053    
 136.00 -47.00      1.1941    
 136.00 -46.00      1.0682    
 136.00 -45.00     0.92445    
 136.00 -44.00     0.76370    
 136.00 -43.00     0.59656    
 136.00 -42.00     0.44524    
 136.00 -41.00     0.33911    
 136.00 -40.00     0.30575    
 136.00 -39.00     0.36016    
 136.00 -38.00     0.49635    
 136.00 -37.00     0.68515    
 136.00 -36.00     0.87961    
 136.00 -35.00      1.0274    
 136.00 -34.00      1.0867    
 136.00 -33.00      1.0400    
 136.00 -32.00     0.90232    
 136.00 -31.00     0.71886    
 136.00 -30.00     0.55374    
 136.00 -29.00     0.47175    
 136.00 -28.00     0.51893    
 136.00 -27.00     0.70786    
 136.00 -26.00      1.0123    
 136.00 -25.00      1.3732    
 136.00 -24.00      1.7143    
 136.00 -23.00      1.9627    
 136.00 -22.00      2.0685    
 136.00 -21.00      2.0169    
 136.00 -20.00      1.8303    
 136.00 -19.00      1.5597    
 136.00 -18.00      1.2679    
 136.00 -17.00      1.0119    
 136.00 -16.00     0.82767    
 136.00 -15.00     0.72405    
 136.00 -14.00     0.68525    
 136.00 -13.00     0.68164    
 136.00 -12.00     0.68356    
 136.00 -11.00     0.67336    
 136.00 -10.00     0.65131    
 136.00  -9.00     0.63354    
 136.00  -8.00     0.64328    
 136.00  -7.00     0.69901    
 136.00  -6.00     0.80439    
 136.00  -5.00     0.94406    
 136.00  -4.00      1.0872    
 136.00  -3.00      1.1980    
 136.00  -2.00      1.2484    
 136.00  -1.00      1.2298    
 136.00   0.00      1.1576    
 136.00   1.00      1.0672    
 136.00   2.00      1.0021    
 136.00   3.00     0.99816    
 136.00   4.00      1.0692    
 136.00   5.00      1.1997    
 136.00   6.00      1.3472    
 136.00   7.00      1.4549    
 136.00   8.00      1.4698    
 136.00   9.00      1.3614    
 136.00  10.00      1.1341    
 136.00  11.00     0.82899    
 136.00  12.00     0.51378    
 136.00  13.00     0.26363    
 136.00  14.00     0.13937    
 136.00  15.00     0.16954    
 136.00  16.00     0.34245    
 136.00  17.00     0.61083    
 136.00  18.00     0.90770    
 136.00  19.00      1.1681    
 136.00  20.00      1.3494    
 136.00  21.00      1.4438    
 136.00  22.00      1.4778    
 136.00  23.00      1.5001    
 136.00  24.00      1.5611    
 136.00  25.00      1.6914    
 136.00  26.00      1.8868    
 136.00  27.00      2.1059    
 136.00  28.00      2.2814    
 136.00  29.00      2.3411    
 136.00  30.00      2.2341    
 136.00  31.00      1.9512    
 136.00  32.00      1.5344    
 136.00  33.00      1.0701    
 136.00  34.00     0.66910    
 136.00  35.00     0.43706    
 136.00  36.00     0.44570    
 136.00  37.00     0.71228    
 136.00  38.00      1.1940    
 136.00  39.00      1.7987    
 136.00  40.00      2.4091    
 136.00  41.00      2.9123    
 136.00  42.00      3.2278    
 136.00  43.00      3.3236    
 136.00  44.00      3.2199    
 136.00  45.00      2.9763    
 136.00  46.00      2.6715    
 136.00  47.00      2.3789    
 136.00  48.00      2.1483    
 136.00  49.00      1.9965    
 136.00  50.00      1.9104    
 136.00  51.00      1.8592    
 136.00  52.00      1.8098    
 136.00  53.00      1.7419    
 136.00  54.00      1.6546    
 136.00  55.00      1.5642    
 136.00  56.00      1.4958    
 136.00  57.00      1.4701    
 136.00  58.00      1.4919    
 136.00  59.00      1.5462    
 136.00  60.00      1.6005    
 136.00  61.00      1.6172    
 136.00  62.00      1.5672    
 136.00  63.00      1.4426    
 136.00  64.00      1.2628    
 136.00  65.00      1.0711    
 136.00  66.00     0.92273    
 136.00  67.00     0.86641    
 136.00  68.00     0.92891    
 136.00  69.00      1.1015    
 136.00  70.00      1.3415    
 136.00  71.00      1.5788    
 136.00  72.00      1.7360    
 136.00  73.00      1.7494    
 136.00  74.00      1.5868    
 136.00  75.00      1.2578    
 136.00  76.00     0.81262    
 136.00  77.00     0.33118    
 136.00  78.00    -0.99370E-01
 136.00  79.00    -0.40303    
 136.00  80.00    -0.53539    
 136.00  81.00    -0.49155    
 136.00  82.00    -0.30542    
 136.00  83.00    -0.39201E-01
 136.00  84.00     0.23155    
 136.00  85.00     0.43552    
 136.00  86.00     0.52982    
 136.00  87.00     0.49352    
 136.00  88.00     0.34187    
 136.00  89.00     0.10969    
 137.00 -89.00     0.63451    
 137.00 -88.00     0.58343    
 137.00 -87.00     0.51136    
 137.00 -86.00     0.42381    
 137.00 -85.00     0.33031    
 137.00 -84.00     0.24992    
 137.00 -83.00     0.20169    
 137.00 -82.00     0.19753    
 137.00 -81.00     0.23723    
 137.00 -80.00     0.30890    
 137.00 -79.00     0.39145    
 137.00 -78.00     0.45739    
 137.00 -77.00     0.48294    
 137.00 -76.00     0.45815    
 137.00 -75.00     0.39074    
 137.00 -74.00     0.30691    
 137.00 -73.00     0.24191    
 137.00 -72.00     0.23443    
 137.00 -71.00     0.31110    
 137.00 -70.00     0.47433    
 137.00 -69.00     0.70287    
 137.00 -68.00     0.95186    
 137.00 -67.00      1.1643    
 137.00 -66.00      1.2860    
 137.00 -65.00      1.2812    
 137.00 -64.00      1.1430    
 137.00 -63.00     0.89771    
 137.00 -62.00     0.59790    
 137.00 -61.00     0.31066    
 137.00 -60.00     0.99511E-01
 137.00 -59.00     0.95324E-02
 137.00 -58.00     0.56810E-01
 137.00 -57.00     0.22619    
 137.00 -56.00     0.47792    
 137.00 -55.00     0.75927    
 137.00 -54.00      1.0193    
 137.00 -53.00      1.2203    
 137.00 -52.00      1.3442    
 137.00 -51.00      1.3916    
 137.00 -50.00      1.3764    
 137.00 -49.00      1.3161    
 137.00 -48.00      1.2253    
 137.00 -47.00      1.1110    
 137.00 -46.00     0.97447    
 137.00 -45.00     0.81610    
 137.00 -44.00     0.64253    
 137.00 -43.00     0.47035    
 137.00 -42.00     0.32640    
 137.00 -41.00     0.24179    
 137.00 -40.00     0.24209    
 137.00 -39.00     0.33672    
 137.00 -38.00     0.51185    
 137.00 -37.00     0.72990    
 137.00 -36.00     0.93707    
 137.00 -35.00      1.0773    
 137.00 -34.00      1.1091    
 137.00 -33.00      1.0194    
 137.00 -32.00     0.83045    
 137.00 -31.00     0.59619    
 137.00 -30.00     0.38899    
 137.00 -29.00     0.27982    
 137.00 -28.00     0.31789    
 137.00 -27.00     0.51558    
 137.00 -26.00     0.84358    
 137.00 -25.00      1.2378    
 137.00 -24.00      1.6161    
 137.00 -23.00      1.9001    
 137.00 -22.00      2.0355    
 137.00 -21.00      2.0051    
 137.00 -20.00      1.8308    
 137.00 -19.00      1.5649    
 137.00 -18.00      1.2733    
 137.00 -17.00      1.0168    
 137.00 -16.00     0.83502    
 137.00 -15.00     0.73975    
 137.00 -14.00     0.71639    
 137.00 -13.00     0.73410    
 137.00 -12.00     0.75954    
 137.00 -11.00     0.76928    
 137.00 -10.00     0.75681    
 137.00  -9.00     0.73200    
 137.00  -8.00     0.71408    
 137.00  -7.00     0.72123    
 137.00  -6.00     0.76131    
 137.00  -5.00     0.82736    
 137.00  -4.00     0.89983    
 137.00  -3.00     0.95454    
 137.00  -2.00     0.97333    
 137.00  -1.00     0.95283    
 137.00   0.00     0.90779    
 137.00   1.00     0.86702    
 137.00   2.00     0.86296    
 137.00   3.00     0.91848    
 137.00   4.00      1.0357    
 137.00   5.00      1.1913    
 137.00   6.00      1.3410    
 137.00   7.00      1.4318    
 137.00   8.00      1.4196    
 137.00   9.00      1.2848    
 137.00  10.00      1.0418    
 137.00  11.00     0.73812    
 137.00  12.00     0.44284    
 137.00  13.00     0.22742    
 137.00  14.00     0.14524    
 137.00  15.00     0.21600    
 137.00  16.00     0.42035    
 137.00  17.00     0.70671    
 137.00  18.00      1.0080    
 137.00  19.00      1.2630    
 137.00  20.00      1.4355    
 137.00  21.00      1.5240    
 137.00  22.00      1.5600    
 137.00  23.00      1.5941    
 137.00  24.00      1.6750    
 137.00  25.00      1.8291    
 137.00  26.00      2.0466    
 137.00  27.00      2.2813    
 137.00  28.00      2.4620    
 137.00  29.00      2.5154    
 137.00  30.00      2.3911    
 137.00  31.00      2.0816    
 137.00  32.00      1.6303    
 137.00  33.00      1.1242    
 137.00  34.00     0.67372    
 137.00  35.00     0.38358    
 137.00  36.00     0.32518    
 137.00  37.00     0.51737    
 137.00  38.00     0.92167    
 137.00  39.00      1.4532    
 137.00  40.00      2.0037    
 137.00  41.00      2.4697    
 137.00  42.00      2.7779    
 137.00  43.00      2.9000    
 137.00  44.00      2.8540    
 137.00  45.00      2.6923    
 137.00  46.00      2.4822    
 137.00  47.00      2.2834    
 137.00  48.00      2.1332    
 137.00  49.00      2.0388    
 137.00  50.00      1.9827    
 137.00  51.00      1.9348    
 137.00  52.00      1.8684    
 137.00  53.00      1.7722    
 137.00  54.00      1.6552    
 137.00  55.00      1.5423    
 137.00  56.00      1.4643    
 137.00  57.00      1.4430    
 137.00  58.00      1.4811    
 137.00  59.00      1.5583    
 137.00  60.00      1.6359    
 137.00  61.00      1.6703    
 137.00  62.00      1.6284    
 137.00  63.00      1.5007    
 137.00  64.00      1.3076    
 137.00  65.00      1.0958    
 137.00  66.00     0.92467    
 137.00  67.00     0.84773    
 137.00  68.00     0.89545    
 137.00  69.00      1.0613    
 137.00  70.00      1.3029    
 137.00  71.00      1.5492    
 137.00  72.00      1.7199    
 137.00  73.00      1.7484    
 137.00  74.00      1.5995    
 137.00  75.00      1.2803    
 137.00  76.00     0.83984    
 137.00  77.00     0.35807    
 137.00  78.00    -0.76948E-01
 137.00  79.00    -0.38795    
 137.00  80.00    -0.52840    
 137.00  81.00    -0.49200    
 137.00  82.00    -0.31137    
 137.00  83.00    -0.48356E-01
 137.00  84.00     0.22136    
 137.00  85.00     0.42600    
 137.00  86.00     0.52187    
 137.00  87.00     0.48753    
 137.00  88.00     0.33792    
 137.00  89.00     0.10778    
 138.00 -89.00     0.63413    
 138.00 -88.00     0.58162    
 138.00 -87.00     0.50725    
 138.00 -86.00     0.41660    
 138.00 -85.00     0.31970    
 138.00 -84.00     0.23579    
 138.00 -83.00     0.18498    
 138.00 -82.00     0.17794    
 138.00 -81.00     0.21621    
 138.00 -80.00     0.28782    
 138.00 -79.00     0.37219    
 138.00 -78.00     0.44177    
 138.00 -77.00     0.47292    
 138.00 -76.00     0.45536    
 138.00 -75.00     0.39600    
 138.00 -74.00     0.31973    
 138.00 -73.00     0.26025    
 138.00 -72.00     0.25456    
 138.00 -71.00     0.32822    
 138.00 -70.00     0.48294    
 138.00 -69.00     0.69826    
 138.00 -68.00     0.93109    
 138.00 -67.00      1.1269    
 138.00 -66.00      1.2345    
 138.00 -65.00      1.2201    
 138.00 -64.00      1.0780    
 138.00 -63.00     0.83386    
 138.00 -62.00     0.53803    
 138.00 -61.00     0.25448    
 138.00 -60.00     0.43422E-01
 138.00 -59.00    -0.52527E-01
 138.00 -58.00    -0.17978E-01
 138.00 -57.00     0.13321    
 138.00 -56.00     0.36433    
 138.00 -55.00     0.62690    
 138.00 -54.00     0.87378    
 138.00 -53.00      1.0701    
 138.00 -52.00      1.1981    
 138.00 -51.00      1.2568    
 138.00 -50.00      1.2563    
 138.00 -49.00      1.2100    
 138.00 -48.00      1.1287    
 138.00 -47.00      1.0176    
 138.00 -46.00     0.87821    
 138.00 -45.00     0.71395    
 138.00 -44.00     0.53570    
 138.00 -43.00     0.36457    
 138.00 -42.00     0.23061    
 138.00 -41.00     0.16579    
 138.00 -40.00     0.19356    
 138.00 -39.00     0.31861    
 138.00 -38.00     0.52083    
 138.00 -37.00     0.75617    
 138.00 -36.00     0.96576    
 138.00 -35.00      1.0910    
 138.00 -34.00      1.0910    
 138.00 -33.00     0.95624    
 138.00 -32.00     0.71467    
 138.00 -31.00     0.42707    
 138.00 -30.00     0.17238    
 138.00 -29.00     0.27012E-01
 138.00 -28.00     0.43643E-01
 138.00 -27.00     0.23599    
 138.00 -26.00     0.57397    
 138.00 -25.00     0.99102    
 138.00 -24.00      1.4013    
 138.00 -23.00      1.7222    
 138.00 -22.00      1.8950    
 138.00 -21.00      1.8989    
 138.00 -20.00      1.7531    
 138.00 -19.00      1.5091    
 138.00 -18.00      1.2335    
 138.00 -17.00     0.98947    
 138.00 -16.00     0.82014    
 138.00 -15.00     0.74051    
 138.00 -14.00     0.73826    
 138.00 -13.00     0.78263    
 138.00 -12.00     0.83761    
 138.00 -11.00     0.87457    
 138.00 -10.00     0.88017    
 138.00  -9.00     0.85756    
 138.00  -8.00     0.82122    
 138.00  -7.00     0.78828    
 138.00  -6.00     0.77008    
 138.00  -5.00     0.76754    
 138.00  -4.00     0.77182    
 138.00  -3.00     0.77000    
 138.00  -2.00     0.75297    
 138.00  -1.00     0.72201    
 138.00   0.00     0.69089    
 138.00   1.00     0.68209    
 138.00   2.00     0.71817    
 138.00   3.00     0.81124    
 138.00   4.00     0.95482    
 138.00   5.00      1.1215    
 138.00   6.00      1.2685    
 138.00   7.00      1.3494    
 138.00   8.00      1.3293    
 138.00   9.00      1.1982    
 138.00  10.00     0.97678    
 138.00  11.00     0.71398    
 138.00  12.00     0.47441    
 138.00  13.00     0.32043    
 138.00  14.00     0.29398    
 138.00  15.00     0.40408    
 138.00  16.00     0.62430    
 138.00  17.00     0.90131    
 138.00  18.00      1.1719    
 138.00  19.00      1.3833    
 138.00  20.00      1.5094    
 138.00  21.00      1.5587    
 138.00  22.00      1.5693    
 138.00  23.00      1.5943    
 138.00  24.00      1.6808    
 138.00  25.00      1.8504    
 138.00  26.00      2.0878    
 138.00  27.00      2.3410    
 138.00  28.00      2.5358    
 138.00  29.00      2.5974    
 138.00  30.00      2.4754    
 138.00  31.00      2.1629    
 138.00  32.00      1.7026    
 138.00  33.00      1.1800    
 138.00  34.00     0.70203    
 138.00  35.00     0.37025    
 138.00  36.00     0.25423    
 138.00  37.00     0.37401    
 138.00  38.00     0.69633    
 138.00  39.00      1.1453    
 138.00  40.00      1.6243    
 138.00  41.00      2.0416    
 138.00  42.00      2.3331    
 138.00  43.00      2.4749    
 138.00  44.00      2.4833    
 138.00  45.00      2.4028    
 138.00  46.00      2.2882    
 138.00  47.00      2.1847    
 138.00  48.00      2.1157    
 138.00  49.00      2.0785    
 138.00  50.00      2.0508    
 138.00  51.00      2.0042    
 138.00  52.00      1.9181    
 138.00  53.00      1.7908    
 138.00  54.00      1.6416    
 138.00  55.00      1.5043    
 138.00  56.00      1.4148    
 138.00  57.00      1.3966    
 138.00  58.00      1.4500    
 138.00  59.00      1.5498    
 138.00  60.00      1.6509    
 138.00  61.00      1.7042    
 138.00  62.00      1.6724    
 138.00  63.00      1.5444    
 138.00  64.00      1.3413    
 138.00  65.00      1.1125    
 138.00  66.00     0.92138    
 138.00  67.00     0.82561    
 138.00  68.00     0.85915    
 138.00  69.00      1.0178    
 138.00  70.00      1.2598    
 138.00  71.00      1.5134    
 138.00  72.00      1.6963    
 138.00  73.00      1.7390    
 138.00  74.00      1.6038    
 138.00  75.00      1.2955    
 138.00  76.00     0.86119    
 138.00  77.00     0.38089    
 138.00  78.00    -0.56851E-01
 138.00  79.00    -0.37376    
 138.00  80.00    -0.52135    
 138.00  81.00    -0.49190    
 138.00  82.00    -0.31669    
 138.00  83.00    -0.57067E-01
 138.00  84.00     0.21132    
 138.00  85.00     0.41656    
 138.00  86.00     0.51388    
 138.00  87.00     0.48144    
 138.00  88.00     0.33387    
 138.00  89.00     0.10581    
 139.00 -89.00     0.63374    
 139.00 -88.00     0.57978    
 139.00 -87.00     0.50310    
 139.00 -86.00     0.40934    
 139.00 -85.00     0.30902    
 139.00 -84.00     0.22153    
 139.00 -83.00     0.16789    
 139.00 -82.00     0.15759    
 139.00 -81.00     0.19395    
 139.00 -80.00     0.26504    
 139.00 -79.00     0.35087    
 139.00 -78.00     0.42393    
 139.00 -77.00     0.46073    
 139.00 -76.00     0.45059    
 139.00 -75.00     0.39947    
 139.00 -74.00     0.33062    
 139.00 -73.00     0.27606    
 139.00 -72.00     0.27092    
 139.00 -71.00     0.33963    
 139.00 -70.00     0.48350    
 139.00 -69.00     0.68311    
 139.00 -68.00     0.89754    
 139.00 -67.00      1.0751    
 139.00 -66.00      1.1676    
 139.00 -65.00      1.1435    
 139.00 -64.00     0.99789    
 139.00 -63.00     0.75564    
 139.00 -62.00     0.46459    
 139.00 -61.00     0.18533    
 139.00 -60.00    -0.25273E-01
 139.00 -59.00    -0.12700    
 139.00 -58.00    -0.10502    
 139.00 -57.00     0.28252E-01
 139.00 -56.00     0.23924    
 139.00 -55.00     0.48362    
 139.00 -54.00     0.71800    
 139.00 -53.00     0.91006    
 139.00 -52.00      1.0425    
 139.00 -51.00      1.1128    
 139.00 -50.00      1.1280    
 139.00 -49.00      1.0978    
 139.00 -48.00      1.0298    
 139.00 -47.00     0.92738    
 139.00 -46.00     0.79244    
 139.00 -45.00     0.63036    
 139.00 -44.00     0.45499    
 139.00 -43.00     0.29041    
 139.00 -42.00     0.16848    
 139.00 -41.00     0.12106    
 139.00 -40.00     0.16948    
 139.00 -39.00     0.31460    
 139.00 -38.00     0.53169    
 139.00 -37.00     0.77242    
 139.00 -36.00     0.97486    
 139.00 -35.00      1.0793    
 139.00 -34.00      1.0458    
 139.00 -33.00     0.86763    
 139.00 -32.00     0.57679    
 139.00 -31.00     0.23868    
 139.00 -30.00    -0.63161E-01
 139.00 -29.00    -0.24825    
 139.00 -28.00    -0.26059    
 139.00 -27.00    -0.84163E-01
 139.00 -26.00     0.25215    
 139.00 -25.00     0.68166    
 139.00 -24.00      1.1171    
 139.00 -23.00      1.4728    
 139.00 -22.00      1.6864    
 139.00 -21.00      1.7322    
 139.00 -20.00      1.6256    
 139.00 -19.00      1.4149    
 139.00 -18.00      1.1658    
 139.00 -17.00     0.94260    
 139.00 -16.00     0.79161    
 139.00 -15.00     0.73184    
 139.00 -14.00     0.75443    
 139.00 -13.00     0.83013    
 139.00 -12.00     0.92153    
 139.00 -11.00     0.99544    
 139.00 -10.00      1.0317    
 139.00  -9.00      1.0261    
 139.00  -8.00     0.98724    
 139.00  -7.00     0.92973    
 139.00  -6.00     0.86701    
 139.00  -5.00     0.80651    
 139.00  -4.00     0.74895    
 139.00  -3.00     0.69170    
 139.00  -2.00     0.63405    
 139.00  -1.00     0.58161    
 139.00   0.00     0.54743    
 139.00   1.00     0.54876    
 139.00   2.00     0.60019    
 139.00   3.00     0.70595    
 139.00   4.00     0.85439    
 139.00   5.00      1.0176    
 139.00   6.00      1.1572    
 139.00   7.00      1.2351    
 139.00   8.00      1.2258    
 139.00   9.00      1.1265    
 139.00  10.00     0.96057    
 139.00  11.00     0.77320    
 139.00  12.00     0.61923    
 139.00  13.00     0.54723    
 139.00  14.00     0.58457    
 139.00  15.00     0.72849    
 139.00  16.00     0.94643    
 139.00  17.00      1.1860    
 139.00  18.00      1.3918    
 139.00  19.00      1.5231    
 139.00  20.00      1.5677    
 139.00  21.00      1.5461    
 139.00  22.00      1.5046    
 139.00  23.00      1.4992    
 139.00  24.00      1.5751    
 139.00  25.00      1.7490    
 139.00  26.00      1.9997    
 139.00  27.00      2.2706    
 139.00  28.00      2.4843    
 139.00  29.00      2.5653    
 139.00  30.00      2.4633    
 139.00  31.00      2.1707    
 139.00  32.00      1.7283    
 139.00  33.00      1.2170    
