  38.00 -14.00    -0.25579    
  38.00 -13.00    -0.11760    
  38.00 -12.00    -0.24114E-02
  38.00 -11.00     0.87246E-01
  38.00 -10.00     0.15120    
  38.00  -9.00     0.18995    
  38.00  -8.00     0.20375    
  38.00  -7.00     0.19260    
  38.00  -6.00     0.15686    
  38.00  -5.00     0.97987E-01
  38.00  -4.00     0.18958E-01
  38.00  -3.00    -0.76030E-01
  38.00  -2.00    -0.18234    
  38.00  -1.00    -0.29577    
  38.00   0.00    -0.41307    
  38.00   1.00    -0.53156    
  38.00   2.00    -0.64807    
  38.00   3.00    -0.75761    
  38.00   4.00    -0.85235    
  38.00   5.00    -0.92189    
  38.00   6.00    -0.95503    
  38.00   7.00    -0.94279    
  38.00   8.00    -0.88197    
  38.00   9.00    -0.77788    
  38.00  10.00    -0.64506    
  38.00  11.00    -0.50528    
  38.00  12.00    -0.38298    
  38.00  13.00    -0.29913    
  38.00  14.00    -0.26528    
  38.00  15.00    -0.27976    
  38.00  16.00    -0.32742    
  38.00  17.00    -0.38334    
  38.00  18.00    -0.41983    
  38.00  19.00    -0.41462    
  38.00  20.00    -0.35803    
  38.00  21.00    -0.25665    
  38.00  22.00    -0.13238    
  38.00  23.00    -0.16717E-01
  38.00  24.00     0.58033E-01
  38.00  25.00     0.68251E-01
  38.00  26.00     0.62434E-02
  38.00  27.00    -0.11689    
  38.00  28.00    -0.27376    
  38.00  29.00    -0.42780    
  38.00  30.00    -0.54310    
  38.00  31.00    -0.59391    
  38.00  32.00    -0.57121    
  38.00  33.00    -0.48454    
  38.00  34.00    -0.35856    
  38.00  35.00    -0.22577    
  38.00  36.00    -0.11748    
  38.00  37.00    -0.55753E-01
  38.00  38.00    -0.48659E-01
  38.00  39.00    -0.89792E-01
  38.00  40.00    -0.16192    
  38.00  41.00    -0.24316    
  38.00  42.00    -0.31377    
  38.00  43.00    -0.36098    
  38.00  44.00    -0.38129    
  38.00  45.00    -0.37908    
  38.00  46.00    -0.36312    
  38.00  47.00    -0.34219    
  38.00  48.00    -0.32152    
  38.00  49.00    -0.30109    
  38.00  50.00    -0.27689    
  38.00  51.00    -0.24345    
  38.00  52.00    -0.19747    
  38.00  53.00    -0.14035    
  38.00  54.00    -0.78878E-01
  38.00  55.00    -0.24379E-01
  38.00  56.00     0.11097E-01
  38.00  57.00     0.17899E-01
  38.00  58.00    -0.80232E-02
  38.00  59.00    -0.64307E-01
  38.00  60.00    -0.14227    
  38.00  61.00    -0.23073    
  38.00  62.00    -0.31862    
  38.00  63.00    -0.39899    
  38.00  64.00    -0.46905    
  38.00  65.00    -0.53130    
  38.00  66.00    -0.59038    
  38.00  67.00    -0.65040    
  38.00  68.00    -0.71262    
  38.00  69.00    -0.77333    
  38.00  70.00    -0.82524    
  38.00  71.00    -0.85932    
  38.00  72.00    -0.86759    
  38.00  73.00    -0.84593    
  38.00  74.00    -0.79669    
  38.00  75.00    -0.72784    
  38.00  76.00    -0.64983    
  38.00  77.00    -0.57463    
  38.00  78.00    -0.51124    
  38.00  79.00    -0.46295    
  38.00  80.00    -0.42722    
  38.00  81.00    -0.39729    
  38.00  82.00    -0.36503    
  38.00  83.00    -0.32306    
  38.00  84.00    -0.26753    
  38.00  85.00    -0.19809    
  38.00  86.00    -0.12541    
  38.00  87.00    -0.57268E-01
  38.00  88.00    -0.65062E-02
  38.00  89.00     0.20187E-01
  39.00 -89.00    -0.24261    
  39.00 -88.00    -0.29151    
  39.00 -87.00    -0.43219    
  39.00 -86.00    -0.62958    
  39.00 -85.00    -0.83066    
  39.00 -84.00    -0.97603    
  39.00 -83.00     -1.0182    
  39.00 -82.00    -0.93677    
  39.00 -81.00    -0.73933    
  39.00 -80.00    -0.46614    
  39.00 -79.00    -0.17657    
  39.00 -78.00     0.67612E-01
  39.00 -77.00     0.21463    
  39.00 -76.00     0.23743    
  39.00 -75.00     0.13935    
  39.00 -74.00    -0.50191E-01
  39.00 -73.00    -0.28401    
  39.00 -72.00    -0.51203    
  39.00 -71.00    -0.69123    
  39.00 -70.00    -0.79680    
  39.00 -69.00    -0.82423    
  39.00 -68.00    -0.78607    
  39.00 -67.00    -0.70446    
  39.00 -66.00    -0.60297    
  39.00 -65.00    -0.49878    
  39.00 -64.00    -0.39929    
  39.00 -63.00    -0.30281    
  39.00 -62.00    -0.20350    
  39.00 -61.00    -0.94823E-01
  39.00 -60.00     0.22439E-01
  39.00 -59.00     0.14062    
  39.00 -58.00     0.24470    
  39.00 -57.00     0.31666    
  39.00 -56.00     0.34072    
  39.00 -55.00     0.30844    
  39.00 -54.00     0.22154    
  39.00 -53.00     0.92407E-01
  39.00 -52.00    -0.59011E-01
  39.00 -51.00    -0.20948    
  39.00 -50.00    -0.33697    
  39.00 -49.00    -0.42562    
  39.00 -48.00    -0.46658    
  39.00 -47.00    -0.45989    
  39.00 -46.00    -0.41202    
  39.00 -45.00    -0.33438    
  39.00 -44.00    -0.24107    
  39.00 -43.00    -0.14678    
  39.00 -42.00    -0.65717E-01
  39.00 -41.00    -0.10371E-01
  39.00 -40.00     0.98599E-02
  39.00 -39.00    -0.99990E-02
  39.00 -38.00    -0.69003E-01
  39.00 -37.00    -0.15948    
  39.00 -36.00    -0.26737    
  39.00 -35.00    -0.37424    
  39.00 -34.00    -0.46076    
  39.00 -33.00    -0.51123    
  39.00 -32.00    -0.51775    
  39.00 -31.00    -0.48297    
  39.00 -30.00    -0.42024    
  39.00 -29.00    -0.35098    
  39.00 -28.00    -0.29952    
  39.00 -27.00    -0.28692    
  39.00 -26.00    -0.32538    
  39.00 -25.00    -0.41472    
  39.00 -24.00    -0.54213    
  39.00 -23.00    -0.68520    
  39.00 -22.00    -0.81723    
  39.00 -21.00    -0.91353    
  39.00 -20.00    -0.95670    
  39.00 -19.00    -0.93976    
  39.00 -18.00    -0.86627    
  39.00 -17.00    -0.74803    
  39.00 -16.00    -0.60108    
  39.00 -15.00    -0.44172    
  39.00 -14.00    -0.28353    
  39.00 -13.00    -0.13623    
  39.00 -12.00    -0.62802E-02
  39.00 -11.00     0.10158    
  39.00 -10.00     0.18271    
  39.00  -9.00     0.23191    
  39.00  -8.00     0.24408    
  39.00  -7.00     0.21589    
  39.00  -6.00     0.14788    
  39.00  -5.00     0.45741E-01
  39.00  -4.00    -0.79694E-01
  39.00  -3.00    -0.21429    
  39.00  -2.00    -0.34359    
  39.00  -1.00    -0.45613    
  39.00   0.00    -0.54580    
  39.00   1.00    -0.61244    
  39.00   2.00    -0.66046    
  39.00   3.00    -0.69581    
  39.00   4.00    -0.72273    
  39.00   5.00    -0.74132    
  39.00   6.00    -0.74708    
  39.00   7.00    -0.73282    
  39.00   8.00    -0.69211    
  39.00   9.00    -0.62317    
  39.00  10.00    -0.53155    
  39.00  11.00    -0.43032    
  39.00  12.00    -0.33726    
  39.00  13.00    -0.26987    
  39.00  14.00    -0.23959    
  39.00  15.00    -0.24723    
  39.00  16.00    -0.28155    
  39.00  17.00    -0.32166    
  39.00  18.00    -0.34295    
  39.00  19.00    -0.32489    
  39.00  20.00    -0.25826    
  39.00  21.00    -0.14943    
  39.00  22.00    -0.19998E-01
  39.00  23.00     0.98347E-01
  39.00  24.00     0.17256    
  39.00  25.00     0.17799    
  39.00  26.00     0.10630    
  39.00  27.00    -0.31064E-01
  39.00  28.00    -0.20492    
  39.00  29.00    -0.37557    
  39.00  30.00    -0.50309    
  39.00  31.00    -0.55790    
  39.00  32.00    -0.52842    
  39.00  33.00    -0.42374    
  39.00  34.00    -0.27069    
  39.00  35.00    -0.10624    
  39.00  36.00     0.32392E-01
  39.00  37.00     0.11709    
  39.00  38.00     0.13502    
  39.00  39.00     0.90159E-01
  39.00  40.00     0.26321E-03
  39.00  41.00    -0.10955    
  39.00  42.00    -0.21426    
  39.00  43.00    -0.29523    
  39.00  44.00    -0.34357    
  39.00  45.00    -0.35999    
  39.00  46.00    -0.35190    
  39.00  47.00    -0.32891    
  39.00  48.00    -0.29879    
  39.00  49.00    -0.26493    
  39.00  50.00    -0.22674    
  39.00  51.00    -0.18127    
  39.00  52.00    -0.12661    
  39.00  53.00    -0.64390E-01
  39.00  54.00    -0.92917E-03
  39.00  55.00     0.53389E-01
  39.00  56.00     0.87061E-01
  39.00  57.00     0.90677E-01
  39.00  58.00     0.59889E-01
  39.00  59.00    -0.35079E-02
  39.00  60.00    -0.91186E-01
  39.00  61.00    -0.19189    
  39.00  62.00    -0.29378    
  39.00  63.00    -0.38840    
  39.00  64.00    -0.47105    
  39.00  65.00    -0.54223    
  39.00  66.00    -0.60503    
  39.00  67.00    -0.66299    
  39.00  68.00    -0.71777    
  39.00  69.00    -0.76706    
  39.00  70.00    -0.80568    
  39.00  71.00    -0.82734    
  39.00  72.00    -0.82572    
  39.00  73.00    -0.79899    
  39.00  74.00    -0.75007    
  39.00  75.00    -0.68677    
  39.00  76.00    -0.61875    
  39.00  77.00    -0.55633    
  39.00  78.00    -0.50662    
  39.00  79.00    -0.47142    
  39.00  80.00    -0.44652    
  39.00  81.00    -0.42430    
  39.00  82.00    -0.39619    
  39.00  83.00    -0.35485    
  39.00  84.00    -0.29681    
  39.00  85.00    -0.22235    
  39.00  86.00    -0.14351    
  39.00  87.00    -0.68917E-01
  39.00  88.00    -0.12565E-01
  39.00  89.00     0.18154E-01
  40.00 -89.00    -0.24206    
  40.00 -88.00    -0.29094    
  40.00 -87.00    -0.43170    
  40.00 -86.00    -0.62861    
  40.00 -85.00    -0.82747    
  40.00 -84.00    -0.96840    
  40.00 -83.00     -1.0036    
  40.00 -82.00    -0.91259    
  40.00 -81.00    -0.70405    
  40.00 -80.00    -0.41917    
  40.00 -79.00    -0.11873    
  40.00 -78.00     0.13448    
  40.00 -77.00     0.28786    
  40.00 -76.00     0.31399    
  40.00 -75.00     0.21637    
  40.00 -74.00     0.25102E-01
  40.00 -73.00    -0.21158    
  40.00 -72.00    -0.44254    
  40.00 -71.00    -0.62387    
  40.00 -70.00    -0.72987    
  40.00 -69.00    -0.75570    
  40.00 -68.00    -0.71396    
  40.00 -67.00    -0.62713    
  40.00 -66.00    -0.51974    
  40.00 -65.00    -0.41001    
  40.00 -64.00    -0.30678    
  40.00 -63.00    -0.20910    
  40.00 -62.00    -0.11176    
  40.00 -61.00    -0.79548E-02
  40.00 -60.00     0.10277    
  40.00 -59.00     0.21477    
  40.00 -58.00     0.31568    
  40.00 -57.00     0.39013    
  40.00 -56.00     0.42461    
  40.00 -55.00     0.41167    
  40.00 -54.00     0.35256    
  40.00 -53.00     0.25749    
  40.00 -52.00     0.14278    
  40.00 -51.00     0.27271E-01
  40.00 -50.00    -0.71531E-01
  40.00 -49.00    -0.14174    
  40.00 -48.00    -0.17695    
  40.00 -47.00    -0.17822    
  40.00 -46.00    -0.15140    
  40.00 -45.00    -0.10599    
  40.00 -44.00    -0.53511E-01
  40.00 -43.00    -0.58539E-02
  40.00 -42.00     0.25369E-01
  40.00 -41.00     0.30052E-01
  40.00 -40.00     0.84087E-03
  40.00 -39.00    -0.65172E-01
  40.00 -38.00    -0.16494    
  40.00 -37.00    -0.28863    
  40.00 -36.00    -0.42020    
  40.00 -35.00    -0.53978    
  40.00 -34.00    -0.62767    
  40.00 -33.00    -0.66909    
  40.00 -32.00    -0.65841    
  40.00 -31.00    -0.60153    
  40.00 -30.00    -0.51539    
  40.00 -29.00    -0.42440    
  40.00 -28.00    -0.35471    
  40.00 -27.00    -0.32754    
  40.00 -26.00    -0.35372    
  40.00 -25.00    -0.43084    
  40.00 -24.00    -0.54388    
  40.00 -23.00    -0.66923    
  40.00 -22.00    -0.78078    
  40.00 -21.00    -0.85626    
  40.00 -20.00    -0.88210    
  40.00 -19.00    -0.85550    
  40.00 -18.00    -0.78325    
  40.00 -17.00    -0.67828    
  40.00 -16.00    -0.55512    
  40.00 -15.00    -0.42598    
  40.00 -14.00    -0.29880    
  40.00 -13.00    -0.17759    
  40.00 -12.00    -0.64575E-01
  40.00 -11.00     0.36975E-01
  40.00 -10.00     0.12069    
  40.00  -9.00     0.17696    
  40.00  -8.00     0.19491    
  40.00  -7.00     0.16597    
  40.00  -6.00     0.87752E-01
  40.00  -5.00    -0.33472E-01
  40.00  -4.00    -0.18261    
  40.00  -3.00    -0.33846    
  40.00  -2.00    -0.47853    
  40.00  -1.00    -0.58456    
  40.00   0.00    -0.64693    
  40.00   1.00    -0.66648    
  40.00   2.00    -0.65318    
  40.00   3.00    -0.62209    
  40.00   4.00    -0.58803    
  40.00   5.00    -0.56071    
  40.00   6.00    -0.54224    
  40.00   7.00    -0.52753    
  40.00   8.00    -0.50763    
  40.00   9.00    -0.47449    
  40.00  10.00    -0.42530    
  40.00  11.00    -0.36478    
  40.00  12.00    -0.30420    
  40.00  13.00    -0.25750    
  40.00  14.00    -0.23575    
  40.00  15.00    -0.24202    
  40.00  16.00    -0.26877    
  40.00  17.00    -0.29891    
  40.00  18.00    -0.31069    
  40.00  19.00    -0.28494    
  40.00  20.00    -0.21238    
  40.00  21.00    -0.98415E-01
  40.00  22.00     0.36420E-01
  40.00  23.00     0.16099    
  40.00  24.00     0.24197    
  40.00  25.00     0.25374    
  40.00  26.00     0.18675    
  40.00  27.00     0.51675E-01
  40.00  28.00    -0.12212    
  40.00  29.00    -0.29362    
  40.00  30.00    -0.42077    
  40.00  31.00    -0.47164    
  40.00  32.00    -0.43292    
  40.00  33.00    -0.31339    
  40.00  34.00    -0.14136    
  40.00  35.00     0.43084E-01
  40.00  36.00     0.19860    
  40.00  37.00     0.29291    
  40.00  38.00     0.31006    
  40.00  39.00     0.25286    
  40.00  40.00     0.14018    
  40.00  41.00     0.32547E-03
  40.00  42.00    -0.13703    
  40.00  43.00    -0.24840    
  40.00  44.00    -0.32071    
  40.00  45.00    -0.35209    
  40.00  46.00    -0.34943    
  40.00  47.00    -0.32360    
  40.00  48.00    -0.28499    
  40.00  49.00    -0.24007    
  40.00  50.00    -0.19106    
  40.00  51.00    -0.13686    
  40.00  52.00    -0.76287E-01
  40.00  53.00    -0.10635E-01
  40.00  54.00     0.54526E-01
  40.00  55.00     0.10982    
  40.00  56.00     0.14412    
  40.00  57.00     0.14795    
  40.00  58.00     0.11623    
  40.00  59.00     0.49797E-01
  40.00  60.00    -0.43771E-01
  40.00  61.00    -0.15340    
  40.00  62.00    -0.26664    
  40.00  63.00    -0.37354    
  40.00  64.00    -0.46749    
  40.00  65.00    -0.54685    
  40.00  66.00    -0.61310    
  40.00  67.00    -0.66903    
  40.00  68.00    -0.71663    
  40.00  69.00    -0.75495    
  40.00  70.00    -0.78084    
  40.00  71.00    -0.79065    
  40.00  72.00    -0.77986    
  40.00  73.00    -0.74877    
  40.00  74.00    -0.70083    
  40.00  75.00    -0.64365    
  40.00  76.00    -0.58616    
  40.00  77.00    -0.53692    
  40.00  78.00    -0.50118    
  40.00  79.00    -0.47925    
  40.00  80.00    -0.46530    
  40.00  81.00    -0.45087    
  40.00  82.00    -0.42695    
  40.00  83.00    -0.38624    
  40.00  84.00    -0.32570    
  40.00  85.00    -0.24638    
  40.00  86.00    -0.16144    
  40.00  87.00    -0.80465E-01
  40.00  88.00    -0.18573E-01
  40.00  89.00     0.16132E-01
  41.00 -89.00    -0.24150    
  41.00 -88.00    -0.29030    
  41.00 -87.00    -0.43102    
  41.00 -86.00    -0.62730    
  41.00 -85.00    -0.82380    
  41.00 -84.00    -0.96020    
  41.00 -83.00    -0.98845    
  41.00 -82.00    -0.88789    
  41.00 -81.00    -0.66839    
  41.00 -80.00    -0.37200    
  41.00 -79.00    -0.60906E-01
  41.00 -78.00     0.20104    
  41.00 -77.00     0.36046    
  41.00 -76.00     0.38964    
  41.00 -75.00     0.29229    
  41.00 -74.00     0.99287E-01
  41.00 -73.00    -0.13995    
  41.00 -72.00    -0.37314    
  41.00 -71.00    -0.55546    
  41.00 -70.00    -0.66038    
  41.00 -69.00    -0.68292    
  41.00 -68.00    -0.63611    
  41.00 -67.00    -0.54323    
  41.00 -66.00    -0.43024    
  41.00 -65.00    -0.31688    
  41.00 -64.00    -0.21357    
  41.00 -63.00    -0.12015    
  41.00 -62.00    -0.31610E-01
  41.00 -61.00     0.59776E-01
  41.00 -60.00     0.15661    
  41.00 -59.00     0.25624    
  41.00 -58.00     0.34980    
  41.00 -57.00     0.42518    
  41.00 -56.00     0.47126    
  41.00 -55.00     0.48135    
  41.00 -54.00     0.45546    
  41.00 -53.00     0.40063    
  41.00 -52.00     0.32847    
  41.00 -51.00     0.25245    
  41.00 -50.00     0.18482    
  41.00 -49.00     0.13337    
  41.00 -48.00     0.10215    
  41.00 -47.00     0.89843E-01
  41.00 -46.00     0.92055E-01
  41.00 -45.00     0.10221    
  41.00 -44.00     0.11227    
  41.00 -43.00     0.11376    
  41.00 -42.00     0.98030E-01
  41.00 -41.00     0.57313E-01
  41.00 -40.00    -0.13981E-01
  41.00 -39.00    -0.11718    
  41.00 -38.00    -0.24772    
  41.00 -37.00    -0.39418    
  41.00 -36.00    -0.53908    
  41.00 -35.00    -0.66165    
  41.00 -34.00    -0.74225    
  41.00 -33.00    -0.76746    
  41.00 -32.00    -0.73426    
  41.00 -31.00    -0.65203    
  41.00 -30.00    -0.54126    
  41.00 -29.00    -0.42912    
  41.00 -28.00    -0.34288    
  41.00 -27.00    -0.30299    
  41.00 -26.00    -0.31776    
  41.00 -25.00    -0.38137    
  41.00 -24.00    -0.47577    
  41.00 -23.00    -0.57592    
  41.00 -22.00    -0.65677    
  41.00 -21.00    -0.69990    
  41.00 -20.00    -0.69772    
  41.00 -19.00    -0.65416    
  41.00 -18.00    -0.58181    
  41.00 -17.00    -0.49668    
  41.00 -16.00    -0.41262    
  41.00 -15.00    -0.33723    
  41.00 -14.00    -0.27075    
  41.00 -13.00    -0.20811    
  41.00 -12.00    -0.14319    
  41.00 -11.00    -0.73607E-01
  41.00 -10.00    -0.39484E-02
  41.00  -9.00     0.53894E-01
  41.00  -8.00     0.83657E-01
  41.00  -7.00     0.70034E-01
  41.00  -6.00     0.45673E-02
  41.00  -5.00    -0.11003    
  41.00  -4.00    -0.25880    
  41.00  -3.00    -0.41735    
  41.00  -2.00    -0.55784    
  41.00  -1.00    -0.65628    
  41.00   0.00    -0.69892    
  41.00   1.00    -0.68556    
  41.00   2.00    -0.62886    
  41.00   3.00    -0.54981    
  41.00   4.00    -0.47093    
  41.00   5.00    -0.40965    
  41.00   6.00    -0.37371    
  41.00   7.00    -0.36037    
  41.00   8.00    -0.35923    
  41.00   9.00    -0.35750    
  41.00  10.00    -0.34574    
  41.00  11.00    -0.32182    
  41.00  12.00    -0.29151    
  41.00  13.00    -0.26573    
  41.00  14.00    -0.25525    
  41.00  15.00    -0.26512    
  41.00  16.00    -0.29098    
  41.00  17.00    -0.31897    
  41.00  18.00    -0.32953    
  41.00  19.00    -0.30417    
  41.00  20.00    -0.23274    
  41.00  21.00    -0.11888    
  41.00  22.00     0.18855E-01
  41.00  23.00     0.15069    
  41.00  24.00     0.24359    
  41.00  25.00     0.27109    
  41.00  26.00     0.22203    
  41.00  27.00     0.10529    
  41.00  28.00    -0.51194E-01
  41.00  29.00    -0.20705    
  41.00  30.00    -0.32005    
  41.00  31.00    -0.35764    
  41.00  32.00    -0.30590    
  41.00  33.00    -0.17360    
  41.00  34.00     0.10104E-01
  41.00  35.00     0.20337    
  41.00  36.00     0.36262    
  41.00  37.00     0.45349    
  41.00  38.00     0.45882    
  41.00  39.00     0.38161    
  41.00  40.00     0.24249    
  41.00  41.00     0.72884E-01
  41.00  42.00    -0.93692E-01
  41.00  43.00    -0.23007    
  41.00  44.00    -0.32040    
  41.00  45.00    -0.36152    
  41.00  46.00    -0.36074    
  41.00  47.00    -0.33070    
  41.00  48.00    -0.28437    
  41.00  49.00    -0.23087    
  41.00  50.00    -0.17452    
  41.00  51.00    -0.11523    
  41.00  52.00    -0.51763E-01
  41.00  53.00     0.15467E-01
  41.00  54.00     0.81999E-01
  41.00  55.00     0.13950    
  41.00  56.00     0.17709    
  41.00  57.00     0.18481    
  41.00  58.00     0.15647    
  41.00  59.00     0.91519E-01
  41.00  60.00    -0.36114E-02
  41.00  61.00    -0.11831    
  41.00  62.00    -0.23968    
  41.00  63.00    -0.35633    
  41.00  64.00    -0.45978    
  41.00  65.00    -0.54616    
  41.00  66.00    -0.61527    
  41.00  67.00    -0.66903    
  41.00  68.00    -0.70968    
  41.00  69.00    -0.73749    
  41.00  70.00    -0.75130    
  41.00  71.00    -0.74992    
  41.00  72.00    -0.73078    
  41.00  73.00    -0.69602    
  41.00  74.00    -0.64970    
  41.00  75.00    -0.59916    
  41.00  76.00    -0.55258    
  41.00  77.00    -0.51679    
  41.00  78.00    -0.49516    
  41.00  79.00    -0.48657    
  41.00  80.00    -0.48360    
  41.00  81.00    -0.47695    
  41.00  82.00    -0.45724    
  41.00  83.00    -0.41717    
  41.00  84.00    -0.35416    
  41.00  85.00    -0.27011    
  41.00  86.00    -0.17916    
  41.00  87.00    -0.91896E-01
  41.00  88.00    -0.24523E-01
  41.00  89.00     0.14124E-01
  42.00 -89.00    -0.24093    
  42.00 -88.00    -0.28958    
  42.00 -87.00    -0.43013    
  42.00 -86.00    -0.62566    
  42.00 -85.00    -0.81968    
  42.00 -84.00    -0.95150    
  42.00 -83.00    -0.97284    
  42.00 -82.00    -0.86285    
  42.00 -81.00    -0.63259    
  42.00 -80.00    -0.32500    
  42.00 -79.00    -0.36008E-02
  42.00 -78.00     0.26666    
  42.00 -77.00     0.43165    
  42.00 -76.00     0.46344    
  42.00 -75.00     0.36599    
  42.00 -74.00     0.17112    
  42.00 -73.00    -0.70509E-01
  42.00 -72.00    -0.30534    
  42.00 -71.00    -0.48762    
  42.00 -70.00    -0.59011    
  42.00 -69.00    -0.60784    
  42.00 -68.00    -0.55464    
  42.00 -67.00    -0.45510    
  42.00 -66.00    -0.33706    
  42.00 -65.00    -0.22218    
  42.00 -64.00    -0.12256    
  42.00 -63.00    -0.38912E-01
  42.00 -62.00     0.34062E-01
  42.00 -61.00     0.10557    
  42.00 -60.00     0.18125    
  42.00 -59.00     0.26225    
  42.00 -58.00     0.34394    
  42.00 -57.00     0.41792    
  42.00 -56.00     0.47551    
  42.00 -55.00     0.51042    
  42.00 -54.00     0.52079    
  42.00 -53.00     0.50959    
  42.00 -52.00     0.48285    
  42.00 -51.00     0.44799    
  42.00 -50.00     0.41156    
  42.00 -49.00     0.37739    
  42.00 -48.00     0.34749    
  42.00 -47.00     0.32105    
  42.00 -46.00     0.29610    
  42.00 -45.00     0.26985    
  42.00 -44.00     0.23851    
  42.00 -43.00     0.19747    
  42.00 -42.00     0.14113    
  42.00 -41.00     0.63881E-01
  42.00 -40.00    -0.38578E-01
  42.00 -39.00    -0.16664    
  42.00 -38.00    -0.31492    
  42.00 -37.00    -0.47111    
  42.00 -36.00    -0.61693    
  42.00 -35.00    -0.73128    
  42.00 -34.00    -0.79516    
  42.00 -33.00    -0.79698    
  42.00 -32.00    -0.73682    
  42.00 -31.00    -0.62783    
  42.00 -30.00    -0.49414    
  42.00 -29.00    -0.36543    
  42.00 -28.00    -0.26947    
  42.00 -27.00    -0.22479    
  42.00 -26.00    -0.23577    
  42.00 -25.00    -0.29162    
  42.00 -24.00    -0.36978    
  42.00 -23.00    -0.44277    
  42.00 -22.00    -0.48643    
  42.00 -21.00    -0.48687    
  42.00 -20.00    -0.44414    
  42.00 -19.00    -0.37134    
  42.00 -18.00    -0.28958    
  42.00 -17.00    -0.22055    
  42.00 -16.00    -0.17924    
  42.00 -15.00    -0.16922    
  42.00 -14.00    -0.18214    
  42.00 -13.00    -0.20151    
  42.00 -12.00    -0.20942    
  42.00 -11.00    -0.19388    
  42.00 -10.00    -0.15401    
  42.00  -9.00    -0.10130    
  42.00  -8.00    -0.56324E-01
  42.00  -7.00    -0.41917E-01
  42.00  -6.00    -0.75131E-01
  42.00  -5.00    -0.16067    
  42.00  -4.00    -0.28811    
  42.00  -3.00    -0.43397    
  42.00  -2.00    -0.56807    
  42.00  -1.00    -0.66208    
  42.00   0.00    -0.69763    
  42.00   1.00    -0.67137    
  42.00   2.00    -0.59530    
  42.00   3.00    -0.49252    
  42.00   4.00    -0.38982    
  42.00   5.00    -0.30966    
  42.00   6.00    -0.26419    
  42.00   7.00    -0.25312    
  42.00   8.00    -0.26586    
  42.00   9.00    -0.28698    
  42.00  10.00    -0.30278    
  42.00  11.00    -0.30637    
  42.00  12.00    -0.29969    
  42.00  13.00    -0.29154    
  42.00  14.00    -0.29261    
  42.00  15.00    -0.30963    
  42.00  16.00    -0.34082    
  42.00  17.00    -0.37473    
  42.00  18.00    -0.39326    
  42.00  19.00    -0.37778    
  42.00  20.00    -0.31656    
  42.00  21.00    -0.21058    
  42.00  22.00    -0.75580E-01
  42.00  23.00     0.60914E-01
  42.00  24.00     0.16688    
  42.00  25.00     0.21543    
  42.00  26.00     0.19369    
  42.00  27.00     0.10800    
  42.00  28.00    -0.16443E-01
  42.00  29.00    -0.14169    
  42.00  30.00    -0.22737    
  42.00  31.00    -0.24205    
  42.00  32.00    -0.17253    
  42.00  33.00    -0.28024E-01
  42.00  34.00     0.16183    
  42.00  35.00     0.35468    
  42.00  36.00     0.50650    
  42.00  37.00     0.58292    
  42.00  38.00     0.56745    
  42.00  39.00     0.46465    
  42.00  40.00     0.29756    
  42.00  41.00     0.10056    
  42.00  42.00    -0.89864E-01
  42.00  43.00    -0.24418    
  42.00  44.00    -0.34523    
  42.00  45.00    -0.38995    
  42.00  46.00    -0.38699    
  42.00  47.00    -0.35121    
  42.00  48.00    -0.29802    
  42.00  49.00    -0.23874    
  42.00  50.00    -0.17888    
  42.00  51.00    -0.11850    
  42.00  52.00    -0.55467E-01
  42.00  53.00     0.11264E-01
  42.00  54.00     0.78682E-01
  42.00  55.00     0.13953    
  42.00  56.00     0.18296    
  42.00  57.00     0.19824    
  42.00  58.00     0.17760    
  42.00  59.00     0.11871    
  42.00  60.00     0.26487E-01
  42.00  61.00    -0.89192E-01
  42.00  62.00    -0.21516    
  42.00  63.00    -0.33870    
  42.00  64.00    -0.44949    
  42.00  65.00    -0.54141    
  42.00  66.00    -0.61254    
  42.00  67.00    -0.66384    
  42.00  68.00    -0.69766    
  42.00  69.00    -0.71545    
  42.00  70.00    -0.71787    
  42.00  71.00    -0.70600    
  42.00  72.00    -0.67936    
  42.00  73.00    -0.64165    
  42.00  74.00    -0.59750    
  42.00  75.00    -0.55400    
  42.00  76.00    -0.51858    
  42.00  77.00    -0.49633    
  42.00  78.00    -0.48882    
  42.00  79.00    -0.49351    
  42.00  80.00    -0.50144    
  42.00  81.00    -0.50253    
  42.00  82.00    -0.48699    
  42.00  83.00    -0.44756    
  42.00  84.00    -0.38211    
  42.00  85.00    -0.29351    
  42.00  86.00    -0.19664    
  42.00  87.00    -0.10319    
  42.00  88.00    -0.30408E-01
  42.00  89.00     0.12131E-01
  43.00 -89.00    -0.24036    
  43.00 -88.00    -0.28879    
  43.00 -87.00    -0.42906    
  43.00 -86.00    -0.62370    
  43.00 -85.00    -0.81514    
  43.00 -84.00    -0.94236    
  43.00 -83.00    -0.95689    
  43.00 -82.00    -0.83763    
  43.00 -81.00    -0.59692    
  43.00 -80.00    -0.27851    
  43.00 -79.00     0.52705E-01
  43.00 -78.00     0.33072    
  43.00 -77.00     0.50065    
  43.00 -76.00     0.53445    
  43.00 -75.00     0.43642    
  43.00 -74.00     0.23938    
  43.00 -73.00    -0.46013E-02
  43.00 -72.00    -0.24061    
  43.00 -71.00    -0.42197    
  43.00 -70.00    -0.52082    
  43.00 -69.00    -0.53238    
  43.00 -68.00    -0.47167    
  43.00 -67.00    -0.36504    
  43.00 -66.00    -0.24261    
  43.00 -65.00    -0.12836    
  43.00 -64.00    -0.36103E-01
  43.00 -63.00     0.32545E-01
  43.00 -62.00     0.83590E-01
  43.00 -61.00     0.12829    
  43.00 -60.00     0.17604    
  43.00 -59.00     0.23248    
  43.00 -58.00     0.29777    
  43.00 -57.00     0.36748    
  43.00 -56.00     0.43530    
  43.00 -55.00     0.49499    
  43.00 -54.00     0.54223    
  43.00 -53.00     0.57516    
  43.00 -52.00     0.59369    
  43.00 -51.00     0.59872    
  43.00 -50.00     0.59103    
  43.00 -49.00     0.57084    
  43.00 -48.00     0.53865    
  43.00 -47.00     0.49503    
  43.00 -46.00     0.44126    
  43.00 -45.00     0.37910    
  43.00 -44.00     0.30956    
  43.00 -43.00     0.23209    
  43.00 -42.00     0.14407    
  43.00 -41.00     0.41539E-01
  43.00 -40.00    -0.79085E-01
  43.00 -39.00    -0.21805    
  43.00 -38.00    -0.36992    
  43.00 -37.00    -0.52221    
  43.00 -36.00    -0.65652    
  43.00 -35.00    -0.75202    
  43.00 -34.00    -0.79082    
  43.00 -33.00    -0.76369    
  43.00 -32.00    -0.67420    
  43.00 -31.00    -0.53963    
  43.00 -30.00    -0.38790    
  43.00 -29.00    -0.25104    
  43.00 -28.00    -0.15671    
  43.00 -27.00    -0.12056    
  43.00 -26.00    -0.14153    
  43.00 -25.00    -0.20209    
  43.00 -24.00    -0.27332    
  43.00 -23.00    -0.32376    
  43.00 -22.00    -0.32907    
  43.00 -21.00    -0.27979    
  43.00 -20.00    -0.18448    
  43.00 -19.00    -0.67208E-01
  43.00 -18.00     0.39849E-01
  43.00 -17.00     0.10653    
  43.00 -16.00     0.11417    
  43.00 -15.00     0.61512E-01
  43.00 -14.00    -0.34980E-01
  43.00 -13.00    -0.14649    
  43.00 -12.00    -0.24116    
  43.00 -11.00    -0.29433    
  43.00 -10.00    -0.29639    
  43.00  -9.00    -0.25565    
  43.00  -8.00    -0.19530    
  43.00  -7.00    -0.14560    
  43.00  -6.00    -0.13371    
  43.00  -5.00    -0.17458    
  43.00  -4.00    -0.26596    
  43.00  -3.00    -0.38890    
  43.00  -2.00    -0.51371    
  43.00  -1.00    -0.60915    
  43.00   0.00    -0.65201    
  43.00   1.00    -0.63386    
  43.00   2.00    -0.56293    
  43.00   3.00    -0.46076    
  43.00   4.00    -0.35488    
  43.00   5.00    -0.27020    
  43.00   6.00    -0.22192    
  43.00   7.00    -0.21225    
  43.00   8.00    -0.23182    
  43.00   9.00    -0.26474    
  43.00  10.00    -0.29553    
  43.00  11.00    -0.31490    
  43.00  12.00    -0.32265    
  43.00  13.00    -0.32644    
  43.00  14.00    -0.33714    
  43.00  15.00    -0.36284    
  43.00  16.00    -0.40370    
  43.00  17.00    -0.45004    
  43.00  18.00    -0.48450    
  43.00  19.00    -0.48782    
  43.00  20.00    -0.44613    
  43.00  21.00    -0.35719    
  43.00  22.00    -0.23314    
  43.00  23.00    -0.98397E-01
  43.00  24.00     0.16957E-01
  43.00  25.00     0.86343E-01
  43.00  26.00     0.95517E-01
  43.00  27.00     0.48070E-01
  43.00  28.00    -0.34411E-01
  43.00  29.00    -0.11786    
  43.00  30.00    -0.16546    
  43.00  31.00    -0.14870    
  43.00  32.00    -0.56408E-01
  43.00  33.00     0.10103    
  43.00  34.00     0.29367    
  43.00  35.00     0.47958    
  43.00  36.00     0.61591    
  43.00  37.00     0.67007    
  43.00  38.00     0.62794    
  43.00  39.00     0.49687    
  43.00  40.00     0.30286    
  43.00  41.00     0.82996E-01
  43.00  42.00    -0.12424    
  43.00  43.00    -0.28824    
  43.00  44.00    -0.39205    
  43.00  45.00    -0.43398    
  43.00  46.00    -0.42488    
  43.00  47.00    -0.38215    
  43.00  48.00    -0.32349    
  43.00  49.00    -0.26169    
  43.00  50.00    -0.20262    
  43.00  51.00    -0.14552    
  43.00  52.00    -0.86565E-01
  43.00  53.00    -0.22703E-01
  43.00  54.00     0.44827E-01
  43.00  55.00     0.10981    
  43.00  56.00     0.16130    
  43.00  57.00     0.18738    
  43.00  58.00     0.17837    
  43.00  59.00     0.12980    
  43.00  60.00     0.44726E-01
  43.00  61.00    -0.67953E-01
  43.00  62.00    -0.19498    
  43.00  63.00    -0.32244    
  43.00  64.00    -0.43821    
  43.00  65.00    -0.53399    
  43.00  66.00    -0.60613    
  43.00  67.00    -0.65453    
  43.00  68.00    -0.68161    
  43.00  69.00    -0.68981    
  43.00  70.00    -0.68155    
  43.00  71.00    -0.65990    
  43.00  72.00    -0.62663    
  43.00  73.00    -0.58661    
  43.00  74.00    -0.54511    
  43.00  75.00    -0.50893    
  43.00  76.00    -0.48473    
  43.00  77.00    -0.47597    
  43.00  78.00    -0.48242    
  43.00  79.00    -0.50020    
  43.00  80.00    -0.51888    
  43.00  81.00    -0.52758    
  43.00  82.00    -0.51616    
  43.00  83.00    -0.47735    
  43.00  84.00    -0.40950    
  43.00  85.00    -0.31652    
  43.00  86.00    -0.21385    
  43.00  87.00    -0.11434    
  43.00  88.00    -0.36220E-01
  43.00  89.00     0.10155E-01
  44.00 -89.00    -0.23979    
  44.00 -88.00    -0.28793    
  44.00 -87.00    -0.42779    
  44.00 -86.00    -0.62142    
  44.00 -85.00    -0.81020    
  44.00 -84.00    -0.93282    
  44.00 -83.00    -0.94069    
  44.00 -82.00    -0.81240    
  44.00 -81.00    -0.56163    
  44.00 -80.00    -0.23290    
  44.00 -79.00     0.10754    
  44.00 -78.00     0.39261    
  44.00 -77.00     0.56672    
  44.00 -76.00     0.60179    
  44.00 -75.00     0.50255    
  44.00 -74.00     0.30292    
  44.00 -73.00     0.56493E-01
  44.00 -72.00    -0.18036    
  44.00 -71.00    -0.36008    
  44.00 -70.00    -0.45421    
  44.00 -69.00    -0.45842    
  44.00 -68.00    -0.38925    
  44.00 -67.00    -0.27521    
  44.00 -66.00    -0.14907    
  44.00 -65.00    -0.37462E-01
  44.00 -64.00     0.44081E-01
  44.00 -63.00     0.93066E-01
  44.00 -62.00     0.11659    
  44.00 -61.00     0.12847    
  44.00 -60.00     0.14242    
  44.00 -59.00     0.16909    
  44.00 -58.00     0.21377    
  44.00 -57.00     0.27612    
  44.00 -56.00     0.35198    
  44.00 -55.00     0.43477    
  44.00 -54.00     0.51718    
  44.00 -53.00     0.59206    
  44.00 -52.00     0.65281    
  44.00 -51.00     0.69375    
  44.00 -50.00     0.71010    
  44.00 -49.00     0.69902    
  44.00 -48.00     0.66021    
  44.00 -47.00     0.59645    
  44.00 -46.00     0.51306    
  44.00 -45.00     0.41689    
  44.00 -44.00     0.31402    
  44.00 -43.00     0.20792    
  44.00 -42.00     0.98562E-01
  44.00 -41.00    -0.16972E-01
  44.00 -40.00    -0.14232    
  44.00 -39.00    -0.27844    
  44.00 -38.00    -0.42061    
  44.00 -37.00    -0.55691    
  44.00 -36.00    -0.66937    
  44.00 -35.00    -0.73785    
  44.00 -34.00    -0.74600    
  44.00 -33.00    -0.68724    
  44.00 -32.00    -0.56892    
  44.00 -31.00    -0.41268    
  44.00 -30.00    -0.25039    
  44.00 -29.00    -0.11634    
  44.00 -28.00    -0.37778E-01
  44.00 -27.00    -0.26662E-01
  44.00 -26.00    -0.75328E-01
  44.00 -25.00    -0.15786    
  44.00 -24.00    -0.23714    
  44.00 -23.00    -0.27576    
  44.00 -22.00    -0.24762    
  44.00 -21.00    -0.14667    
  44.00 -20.00     0.10174E-01
  44.00 -19.00     0.18696    
  44.00 -18.00     0.33862    
  44.00 -17.00     0.42399    
  44.00 -16.00     0.41793    
  44.00 -15.00     0.31891    
  44.00 -14.00     0.14969    
  44.00 -13.00    -0.49309E-01
  44.00 -12.00    -0.23173    
  44.00 -11.00    -0.35861    
  44.00 -10.00    -0.40926    
  44.00  -9.00    -0.38629    
  44.00  -8.00    -0.31351    
  44.00  -7.00    -0.22754    
  44.00  -6.00    -0.16581    
  44.00  -5.00    -0.15497    
  44.00  -4.00    -0.20320    
  44.00  -3.00    -0.29868    
  44.00  -2.00    -0.41443    
  44.00  -1.00    -0.51763    
  44.00   0.00    -0.58025    
  44.00   1.00    -0.58749    
  44.00   2.00    -0.54144    
  44.00   3.00    -0.45915    
  44.00   4.00    -0.36604    
  44.00   5.00    -0.28727    
  44.00   6.00    -0.23997    
  44.00   7.00    -0.22903    
  44.00   8.00    -0.24745    
  44.00   9.00    -0.28086    
  44.00  10.00    -0.31414    
  44.00  11.00    -0.33760    
  44.00  12.00    -0.35030    
  44.00  13.00    -0.35949    
  44.00  14.00    -0.37632    
  44.00  15.00    -0.40990    
  44.00  16.00    -0.46182    
  44.00  17.00    -0.52374    
  44.00  18.00    -0.57883    
  44.00  19.00    -0.60708    
  44.00  20.00    -0.59241    
  44.00  21.00    -0.52920    
  44.00  22.00    -0.42551    
  44.00  23.00    -0.30182    
  44.00  24.00    -0.18526    
  44.00  25.00    -0.10100    
  44.00  26.00    -0.63816E-01
  44.00  27.00    -0.72523E-01
  44.00  28.00    -0.10942    
  44.00  29.00    -0.14523    
  44.00  30.00    -0.14805    
  44.00  31.00    -0.93807E-01
  44.00  32.00     0.25325E-01
  44.00  33.00     0.19702    
  44.00  34.00     0.39094    
  44.00  35.00     0.56624    
  44.00  36.00     0.68242    
  44.00  37.00     0.71016    
  44.00  38.00     0.63909    
  44.00  39.00     0.48033    
  44.00  40.00     0.26312    
  44.00  41.00     0.26882E-01
  44.00  42.00    -0.18885    
  44.00  43.00    -0.35370    
  44.00  44.00    -0.45231    
  44.00  45.00    -0.48549    
  44.00  46.00    -0.46697    
  44.00  47.00    -0.41689    
  44.00  48.00    -0.35485    
  44.00  49.00    -0.29445    
  44.00  50.00    -0.24094    
  44.00  51.00    -0.19187    
  44.00  52.00    -0.14096    
  44.00  53.00    -0.82666E-01
  44.00  54.00    -0.16214E-01
  44.00  55.00     0.53165E-01
  44.00  56.00     0.11425    
  44.00  57.00     0.15365    
  44.00  58.00     0.15943    
  44.00  59.00     0.12472    
  44.00  60.00     0.50437E-01
  44.00  61.00    -0.55704E-01
  44.00  62.00    -0.18052    
  44.00  63.00    -0.30902    
  44.00  64.00    -0.42743    
  44.00  65.00    -0.52532    
  44.00  66.00    -0.59735    
  44.00  67.00    -0.64235    
  44.00  68.00    -0.66271    
  44.00  69.00    -0.66175    
  44.00  70.00    -0.64351    
  44.00  71.00    -0.61282    
  44.00  72.00    -0.57370    
  44.00  73.00    -0.53194    
  44.00  74.00    -0.49344    
  44.00  75.00    -0.46474    
  44.00  76.00    -0.45164    
  44.00  77.00    -0.45611    
  44.00  78.00    -0.47624    
  44.00  79.00    -0.50678    
  44.00  80.00    -0.53593    
  44.00  81.00    -0.55207    
  44.00  82.00    -0.54468    
  44.00  83.00    -0.50649    
  44.00  84.00    -0.43628    
  44.00  85.00    -0.33910    
  44.00  86.00    -0.23077    
  44.00  87.00    -0.12532    
  44.00  88.00    -0.41954E-01
  44.00  89.00     0.81980E-02
  45.00 -89.00    -0.23921    
  45.00 -88.00    -0.28700    
  45.00 -87.00    -0.42635    
  45.00 -86.00    -0.61883    
  45.00 -85.00    -0.80490    
  45.00 -84.00    -0.92295    
  45.00 -83.00    -0.92432    
  45.00 -82.00    -0.78732    
  45.00 -81.00    -0.52695    
  45.00 -80.00    -0.18852    
  45.00 -79.00     0.16043    
  45.00 -78.00     0.45176    
  45.00 -77.00     0.62915    
  45.00 -76.00     0.66463    
  45.00 -75.00     0.56342    
  45.00 -74.00     0.36068    
  45.00 -73.00     0.11159    
  45.00 -72.00    -0.12592    
  45.00 -71.00    -0.30338    
  45.00 -70.00    -0.39189    
  45.00 -69.00    -0.38775    
  45.00 -68.00    -0.30927    
  45.00 -67.00    -0.18757    
  45.00 -66.00    -0.58354E-01
  45.00 -65.00     0.48911E-01
  45.00 -64.00     0.11692    
  45.00 -63.00     0.14241    
  45.00 -62.00     0.13391    
  45.00 -61.00     0.10820    
  45.00 -60.00     0.83741E-01
  45.00 -59.00     0.76529E-01
  45.00 -58.00     0.97088E-01
  45.00 -57.00     0.14910    
  45.00 -56.00     0.23020    
  45.00 -55.00     0.33311    
  45.00 -54.00     0.44708    
  45.00 -53.00     0.55936    
  45.00 -52.00     0.65683    
  45.00 -51.00     0.72742    
  45.00 -50.00     0.76131    
  45.00 -49.00     0.75333    
  45.00 -48.00     0.70322    
  45.00 -47.00     0.61669    
  45.00 -46.00     0.50378    
  45.00 -45.00     0.37666    
  45.00 -44.00     0.24651    
  45.00 -43.00     0.12046    
  45.00 -42.00     0.48582E-03
  45.00 -41.00    -0.11610    
  45.00 -40.00    -0.23384    
  45.00 -39.00    -0.35526    
  45.00 -38.00    -0.47712    
  45.00 -37.00    -0.58863    
  45.00 -36.00    -0.67264    
  45.00 -35.00    -0.70997    
  45.00 -34.00    -0.68586    
  45.00 -33.00    -0.59642    
  45.00 -32.00    -0.45278    
  45.00 -31.00    -0.28095    
  45.00 -30.00    -0.11681    
  45.00 -29.00     0.30513E-02
  45.00 -28.00     0.51847E-01
  45.00 -27.00     0.21587E-01
  45.00 -26.00    -0.72816E-01
  45.00 -25.00    -0.19601    
  45.00 -24.00    -0.30116    
  45.00 -23.00    -0.34307    
  45.00 -22.00    -0.29195    
  45.00 -21.00    -0.14340    
  45.00 -20.00     0.78452E-01
  45.00 -19.00     0.32608    
  45.00 -18.00     0.54080    
  45.00 -17.00     0.66864    
  45.00 -16.00     0.67541    
  45.00 -15.00     0.55638    
  45.00 -14.00     0.33773    
  45.00 -13.00     0.69268E-01
  45.00 -12.00    -0.18932    
  45.00 -11.00    -0.38479    
  45.00 -10.00    -0.48427    
  45.00  -9.00    -0.48283    
  45.00  -8.00    -0.40281    
  45.00  -7.00    -0.28533    
  45.00  -6.00    -0.17699    
  45.00  -5.00    -0.11590    
  45.00  -4.00    -0.12131    
  45.00  -3.00    -0.18977    
  45.00  -2.00    -0.29842    
  45.00  -1.00    -0.41392    
  45.00   0.00    -0.50380    
  45.00   1.00    -0.54641    
  45.00   2.00    -0.53647    
  45.00   3.00    -0.48478    
  45.00   4.00    -0.41289    
  45.00   5.00    -0.34480    
  45.00   6.00    -0.29890    
  45.00   7.00    -0.28285    
  45.00   8.00    -0.29293    
  45.00   9.00    -0.31763    
  45.00  10.00    -0.34369    
  45.00  11.00    -0.36222    
  45.00  12.00    -0.37234    
  45.00  13.00    -0.38111    
  45.00  14.00    -0.39978    
  45.00  15.00    -0.43813    
  45.00  16.00    -0.49892    
  45.00  17.00    -0.57506    
  45.00  18.00    -0.65055    
  45.00  19.00    -0.70516    
  45.00  20.00    -0.72118    
  45.00  21.00    -0.68988    
  45.00  22.00    -0.61518    
  45.00  23.00    -0.51301    
  45.00  24.00    -0.40644    
  45.00  25.00    -0.31795    
  45.00  26.00    -0.26158    
  45.00  27.00    -0.23761    
  45.00  28.00    -0.23195    
  45.00  29.00    -0.22037    
  45.00  30.00    -0.17680    
  45.00  31.00    -0.82699E-01
  45.00  32.00     0.65288E-01
  45.00  33.00     0.25213    
  45.00  34.00     0.44687    
  45.00  35.00     0.61011    
  45.00  36.00     0.70455    
  45.00  37.00     0.70516    
  45.00  38.00     0.60632    
  45.00  39.00     0.42347    
  45.00  40.00     0.18916    
  45.00  41.00    -0.55366E-01
  45.00  42.00    -0.27053    
  45.00  43.00    -0.42742    
  45.00  44.00    -0.51346    
  45.00  45.00    -0.53289    
  45.00  46.00    -0.50280    
  45.00  47.00    -0.44602    
  45.00  48.00    -0.38360    
  45.00  49.00    -0.32915    
  45.00  50.00    -0.28639    
  45.00  51.00    -0.25037    
  45.00  52.00    -0.21170    
  45.00  53.00    -0.16198    
  45.00  54.00    -0.98278E-01
  45.00  55.00    -0.24931E-01
  45.00  56.00     0.46404E-01
  45.00  57.00     0.10060    
  45.00  58.00     0.12325    
  45.00  59.00     0.10488    
  45.00  60.00     0.44101E-01
  45.00  61.00    -0.52703E-01
  45.00  62.00    -0.17256    
  45.00  63.00    -0.29960    
  45.00  64.00    -0.41846    
  45.00  65.00    -0.51677    
  45.00  66.00    -0.58758    
  45.00  67.00    -0.62863    
  45.00  68.00    -0.64226    
  45.00  69.00    -0.63256    
  45.00  70.00    -0.60501    
  45.00  71.00    -0.56600    
  45.00  72.00    -0.52174    
  45.00  73.00    -0.47872    
  45.00  74.00    -0.44344    
  45.00  75.00    -0.42219    
  45.00  76.00    -0.41989    
  45.00  77.00    -0.43718    
  45.00  78.00    -0.47054    
  45.00  79.00    -0.51338    
  45.00  80.00    -0.55266    
  45.00  81.00    -0.57598    
  45.00  82.00    -0.57251    
  45.00  83.00    -0.53491    
  45.00  84.00    -0.46240    
  45.00  85.00    -0.36121    
  45.00  86.00    -0.24735    
  45.00  87.00    -0.13612    
  45.00  88.00    -0.47601E-01
  45.00  89.00     0.62610E-02
  46.00 -89.00    -0.23862    
  46.00 -88.00    -0.28599    
  46.00 -87.00    -0.42472    
  46.00 -86.00    -0.61595    
  46.00 -85.00    -0.79927    
  46.00 -84.00    -0.91281    
  46.00 -83.00    -0.90789    
  46.00 -82.00    -0.76256    
  46.00 -81.00    -0.49314    
  46.00 -80.00    -0.14569    
  46.00 -79.00     0.21096    
  46.00 -78.00     0.50762    
  46.00 -77.00     0.68728    
  46.00 -76.00     0.72221    
  46.00 -75.00     0.61817    
  46.00 -74.00     0.41169    
  46.00 -73.00     0.15961    
  46.00 -72.00    -0.78473E-01
  46.00 -71.00    -0.25319    
  46.00 -70.00    -0.33529    
  46.00 -69.00    -0.32194    
  46.00 -68.00    -0.23345    
  46.00 -67.00    -0.10384    
  46.00 -66.00     0.28003E-01
  46.00 -65.00     0.12964    
  46.00 -64.00     0.18197    
  46.00 -63.00     0.18117    
  46.00 -62.00     0.13747    
  46.00 -61.00     0.70926E-01
  46.00 -60.00     0.50161E-02
  46.00 -59.00    -0.38804E-01
  46.00 -58.00    -0.44869E-01
  46.00 -57.00    -0.57354E-02
  46.00 -56.00     0.77610E-01
  46.00 -55.00     0.19675    
  46.00 -54.00     0.33721    
  46.00 -53.00     0.48055    
  46.00 -52.00     0.60737    
  46.00 -51.00     0.69970    
  46.00 -50.00     0.74349    
  46.00 -49.00     0.73204    
  46.00 -48.00     0.66605    
  46.00 -47.00     0.55482    
  46.00 -46.00     0.41345    
  46.00 -45.00     0.25948    
  46.00 -44.00     0.10884    
  46.00 -43.00    -0.28271E-01
  46.00 -42.00    -0.14869    
  46.00 -41.00    -0.25578    
  46.00 -40.00    -0.35590    
  46.00 -39.00    -0.45395    
  46.00 -38.00    -0.54879    
  46.00 -37.00    -0.63118    
  46.00 -36.00    -0.68495    
  46.00 -35.00    -0.69180    
  46.00 -34.00    -0.63829    
  46.00 -33.00    -0.52281    
  46.00 -32.00    -0.35987    
  46.00 -31.00    -0.17957    
  46.00 -30.00    -0.21632E-01
  46.00 -29.00     0.74882E-01
  46.00 -28.00     0.83410E-01
  46.00 -27.00    -0.42906E-03
  46.00 -26.00    -0.15467    
  46.00 -25.00    -0.33436    
  46.00 -24.00    -0.48221    
  46.00 -23.00    -0.54396    
  46.00 -22.00    -0.48421    
  46.00 -21.00    -0.29807    
  46.00 -20.00    -0.14778E-01
  46.00 -19.00     0.30814    
  46.00 -18.00     0.59896    
  46.00 -17.00     0.79039    
  46.00 -16.00     0.83735    
  46.00 -15.00     0.72910    
  46.00 -14.00     0.49187    
  46.00 -13.00     0.18156    
  46.00 -12.00    -0.13158    
  46.00 -11.00    -0.38166    
  46.00 -10.00    -0.52393    
  46.00  -9.00    -0.54502    
  46.00  -8.00    -0.46392    
  46.00  -7.00    -0.32393    
  46.00  -6.00    -0.17855    
  46.00  -5.00    -0.75606E-01
  46.00  -4.00    -0.44483E-01
  46.00  -3.00    -0.89933E-01
  46.00  -2.00    -0.19368    
  46.00  -1.00    -0.32266    
  46.00   0.00    -0.44071    
  46.00   1.00    -0.51975    
  46.00   2.00    -0.54713    
  46.00   3.00    -0.52709    
  46.00   4.00    -0.47676    
  46.00   5.00    -0.41848    
  46.00   6.00    -0.37163    
  46.00   7.00    -0.34678    
  46.00   8.00    -0.34391    
  46.00   9.00    -0.35492    
  46.00  10.00    -0.36897    
  46.00  11.00    -0.37824    
  46.00  12.00    -0.38187    
  46.00  13.00    -0.38640    
  46.00  14.00    -0.40273    
  46.00  15.00    -0.44089    
  46.00  16.00    -0.50474    
  46.00  17.00    -0.58886    
  46.00  18.00    -0.67890    
  46.00  19.00    -0.75554    
  46.00  20.00    -0.80059    
  46.00  21.00    -0.80312    
  46.00  22.00    -0.76323    
  46.00  23.00    -0.69196    
  46.00  24.00    -0.60737    
  46.00  25.00    -0.52781    
  46.00  26.00    -0.46508    
  46.00  27.00    -0.41967    
  46.00  28.00    -0.38019    
  46.00  29.00    -0.32729    
  46.00  30.00    -0.24099    
  46.00  31.00    -0.10899    
  46.00  32.00     0.66847E-01
  46.00  33.00     0.26819    
  46.00  34.00     0.46320    
  46.00  35.00     0.61415    
  46.00  36.00     0.68738    
  46.00  37.00     0.66284    
  46.00  38.00     0.54013    
  46.00  39.00     0.33922    
  46.00  40.00     0.95720E-01
  46.00  41.00    -0.14801    
  46.00  42.00    -0.35336    
  46.00  43.00    -0.49403    
  46.00  44.00    -0.56119    
  46.00  45.00    -0.56320    
  46.00  46.00    -0.52071    
  46.00  47.00    -0.45899    
  46.00  48.00    -0.39999    
  46.00  49.00    -0.35650    
  46.00  50.00    -0.32987    
  46.00  51.00    -0.31195    
  46.00  52.00    -0.28976    
  46.00  53.00    -0.25183    
  46.00  54.00    -0.19300    
  46.00  55.00    -0.11686    
  46.00  56.00    -0.35661E-01
  46.00  57.00     0.33569E-01
  46.00  58.00     0.73842E-01
  46.00  59.00     0.72986E-01
  46.00  60.00     0.27258E-01
  46.00  61.00    -0.58387E-01
  46.00  62.00    -0.17130    
  46.00  63.00    -0.29485    
  46.00  64.00    -0.41231    
  46.00  65.00    -0.50955    
  46.00  66.00    -0.57808    
  46.00  67.00    -0.61470    
  46.00  68.00    -0.62161    
  46.00  69.00    -0.60355    
  46.00  70.00    -0.56735    
  46.00  71.00    -0.52076    
  46.00  72.00    -0.47194    
  46.00  73.00    -0.42800    
  46.00  74.00    -0.39603    
  46.00  75.00    -0.38206    
  46.00  76.00    -0.39008    
  46.00  77.00    -0.41959    
  46.00  78.00    -0.46558    
  46.00  79.00    -0.52014    
  46.00  80.00    -0.56909    
  46.00  81.00    -0.59930    
  46.00  82.00    -0.59959    
  46.00  83.00    -0.56256    
  46.00  84.00    -0.48782    
  46.00  85.00    -0.38281    
  46.00  86.00    -0.26358    
  46.00  87.00    -0.14672    
  46.00  88.00    -0.53157E-01
  46.00  89.00     0.43460E-02
  47.00 -89.00    -0.23804    
  47.00 -88.00    -0.28492    
  47.00 -87.00    -0.42292    
  47.00 -86.00    -0.61279    
  47.00 -85.00    -0.79333    
  47.00 -84.00    -0.90244    
  47.00 -83.00    -0.89147    
  47.00 -82.00    -0.73827    
  47.00 -81.00    -0.46041    
  47.00 -80.00    -0.10474    
  47.00 -79.00     0.25870    
  47.00 -78.00     0.55968    
