-117.00 -69.00     -1.0033    
-117.00 -68.00     -1.2080    
-117.00 -67.00     -1.3206    
-117.00 -66.00     -1.3146    
-117.00 -65.00     -1.1915    
-117.00 -64.00    -0.97992    
-117.00 -63.00    -0.72781    
-117.00 -62.00    -0.48800    
-117.00 -61.00    -0.30308    
-117.00 -60.00    -0.19568    
-117.00 -59.00    -0.16290    
-117.00 -58.00    -0.18080    
-117.00 -57.00    -0.21449    
-117.00 -56.00    -0.23118    
-117.00 -55.00    -0.21124    
-117.00 -54.00    -0.15502    
-117.00 -53.00    -0.80815E-01
-117.00 -52.00    -0.17935E-01
-117.00 -51.00     0.48012E-02
-117.00 -50.00    -0.29612E-01
-117.00 -49.00    -0.11970    
-117.00 -48.00    -0.24512    
-117.00 -47.00    -0.37265    
-117.00 -46.00    -0.46668    
-117.00 -45.00    -0.50078    
-117.00 -44.00    -0.46575    
-117.00 -43.00    -0.37258    
-117.00 -42.00    -0.24839    
-117.00 -41.00    -0.12792    
-117.00 -40.00    -0.42475E-01
-117.00 -39.00    -0.10934E-01
-117.00 -38.00    -0.34985E-01
-117.00 -37.00    -0.10026    
-117.00 -36.00    -0.18253    
-117.00 -35.00    -0.25665    
-117.00 -34.00    -0.30499    
-117.00 -33.00    -0.32263    
-117.00 -32.00    -0.31769    
-117.00 -31.00    -0.30706    
-117.00 -30.00    -0.30932    
-117.00 -29.00    -0.33745    
-117.00 -28.00    -0.39410    
-117.00 -27.00    -0.47085    
-117.00 -26.00    -0.55156    
-117.00 -25.00    -0.61842    
-117.00 -24.00    -0.65832    
-117.00 -23.00    -0.66722    
-117.00 -22.00    -0.65099    
-117.00 -21.00    -0.62261    
-117.00 -20.00    -0.59691    
-117.00 -19.00    -0.58497    
-117.00 -18.00    -0.59040    
-117.00 -17.00    -0.60886    
-117.00 -16.00    -0.63101    
-117.00 -15.00    -0.64759    
-117.00 -14.00    -0.65465    
-117.00 -13.00    -0.65654    
-117.00 -12.00    -0.66540    
-117.00 -11.00    -0.69683    
-117.00 -10.00    -0.76324    
-117.00  -9.00    -0.86713    
-117.00  -8.00    -0.99693    
-117.00  -7.00     -1.1273    
-117.00  -6.00     -1.2242    
-117.00  -5.00     -1.2538    
-117.00  -4.00     -1.1929    
-117.00  -3.00     -1.0364    
-117.00  -2.00    -0.80129    
-117.00  -1.00    -0.52386    
-117.00   0.00    -0.25186    
-117.00   1.00    -0.32908E-01
-117.00   2.00     0.97167E-01
-117.00   3.00     0.12281    
-117.00   4.00     0.51736E-01
-117.00   5.00    -0.88304E-01
-117.00   6.00    -0.25801    
-117.00   7.00    -0.41751    
-117.00   8.00    -0.53667    
-117.00   9.00    -0.60177    
-117.00  10.00    -0.61674    
-117.00  11.00    -0.59913    
-117.00  12.00    -0.57218    
-117.00  13.00    -0.55587    
-117.00  14.00    -0.55977    
-117.00  15.00    -0.57998    
-117.00  16.00    -0.60093    
-117.00  17.00    -0.60141    
-117.00  18.00    -0.56276    
-117.00  19.00    -0.47643    
-117.00  20.00    -0.34855    
-117.00  21.00    -0.19993    
-117.00  22.00    -0.61257E-01
-117.00  23.00     0.35021E-01
-117.00  24.00     0.63841E-01
-117.00  25.00     0.14978E-01
-117.00  26.00    -0.10345    
-117.00  27.00    -0.26649    
-117.00  28.00    -0.43867    
-117.00  29.00    -0.58325    
-117.00  30.00    -0.67203    
-117.00  31.00    -0.69295    
-117.00  32.00    -0.65326    
-117.00  33.00    -0.57747    
-117.00  34.00    -0.50053    
-117.00  35.00    -0.45812    
-117.00  36.00    -0.47663    
-117.00  37.00    -0.56568    
-117.00  38.00    -0.71523    
-117.00  39.00    -0.89804    
-117.00  40.00     -1.0769    
-117.00  41.00     -1.2149    
-117.00  42.00     -1.2851    
-117.00  43.00     -1.2782    
-117.00  44.00     -1.2050    
-117.00  45.00     -1.0929    
-117.00  46.00    -0.97852    
-117.00  47.00    -0.89726    
-117.00  48.00    -0.87283    
-117.00  49.00    -0.91100    
-117.00  50.00    -0.99770    
-117.00  51.00     -1.1030    
-117.00  52.00     -1.1896    
-117.00  53.00     -1.2237    
-117.00  54.00     -1.1837    
-117.00  55.00     -1.0670    
-117.00  56.00    -0.88959    
-117.00  57.00    -0.68126    
-117.00  58.00    -0.47701    
-117.00  59.00    -0.30680    
-117.00  60.00    -0.18829    
-117.00  61.00    -0.12255    
-117.00  62.00    -0.96069E-01
-117.00  63.00    -0.86767E-01
-117.00  64.00    -0.72269E-01
-117.00  65.00    -0.38341E-01
-117.00  66.00     0.16772E-01
-117.00  67.00     0.82005E-01
-117.00  68.00     0.13808    
-117.00  69.00     0.16495    
-117.00  70.00     0.15012    
-117.00  71.00     0.93362E-01
-117.00  72.00     0.89873E-02
-117.00  73.00    -0.80023E-01
-117.00  74.00    -0.14776    
-117.00  75.00    -0.17531    
-117.00  76.00    -0.15811    
-117.00  77.00    -0.10674    
-117.00  78.00    -0.45872E-01
-117.00  79.00    -0.54448E-02
-117.00  80.00    -0.12462E-01
-117.00  81.00    -0.78676E-01
-117.00  82.00    -0.19996    
-117.00  83.00    -0.35174    
-117.00  84.00    -0.49922    
-117.00  85.00    -0.60652    
-117.00  86.00    -0.64705    
-117.00  87.00    -0.60946    
-117.00  88.00    -0.50591    
-117.00  89.00    -0.36221    
-116.00 -89.00    -0.19555    
-116.00 -88.00    -0.24076    
-116.00 -87.00    -0.29710    
-116.00 -86.00    -0.35022    
-116.00 -85.00    -0.39683    
-116.00 -84.00    -0.43715    
-116.00 -83.00    -0.47597    
-116.00 -82.00    -0.51684    
-116.00 -81.00    -0.55423    
-116.00 -80.00    -0.57798    
-116.00 -79.00    -0.57399    
-116.00 -78.00    -0.53138    
-116.00 -77.00    -0.44897    
-116.00 -76.00    -0.34223    
-116.00 -75.00    -0.23842    
-116.00 -74.00    -0.17371    
-116.00 -73.00    -0.18026    
-116.00 -72.00    -0.27730    
-116.00 -71.00    -0.46075    
-116.00 -70.00    -0.70258    
-116.00 -69.00    -0.95602    
-116.00 -68.00     -1.1661    
-116.00 -67.00     -1.2854    
-116.00 -66.00     -1.2864    
-116.00 -65.00     -1.1697    
-116.00 -64.00    -0.96309    
-116.00 -63.00    -0.71396    
-116.00 -62.00    -0.47516    
-116.00 -61.00    -0.29008    
-116.00 -60.00    -0.18225    
-116.00 -59.00    -0.14998    
-116.00 -58.00    -0.17034    
-116.00 -57.00    -0.20903    
-116.00 -56.00    -0.23317    
-116.00 -55.00    -0.22247    
-116.00 -54.00    -0.17611    
-116.00 -53.00    -0.11119    
-116.00 -52.00    -0.56104E-01
-116.00 -51.00    -0.39506E-01
-116.00 -50.00    -0.79139E-01
-116.00 -49.00    -0.17496    
-116.00 -48.00    -0.30878    
-116.00 -47.00    -0.44936    
-116.00 -46.00    -0.56254    
-116.00 -45.00    -0.62208    
-116.00 -44.00    -0.61761    
-116.00 -43.00    -0.55729    
-116.00 -42.00    -0.46438    
-116.00 -41.00    -0.36942    
-116.00 -40.00    -0.29995    
-116.00 -39.00    -0.27239    
-116.00 -38.00    -0.28787    
-116.00 -37.00    -0.33351    
-116.00 -36.00    -0.38832    
-116.00 -35.00    -0.43140    
-116.00 -34.00    -0.44941    
-116.00 -33.00    -0.44077    
-116.00 -32.00    -0.41520    
-116.00 -31.00    -0.38918    
-116.00 -30.00    -0.37894    
-116.00 -29.00    -0.39400    
-116.00 -28.00    -0.43329    
-116.00 -27.00    -0.48559    
-116.00 -26.00    -0.53366    
-116.00 -25.00    -0.56083    
-116.00 -24.00    -0.55723    
-116.00 -23.00    -0.52368    
-116.00 -22.00    -0.47155    
-116.00 -21.00    -0.41891    
-116.00 -20.00    -0.38436    
-116.00 -19.00    -0.38080    
-116.00 -18.00    -0.41156    
-116.00 -17.00    -0.47015    
-116.00 -16.00    -0.54376    
-116.00 -15.00    -0.61904    
-116.00 -14.00    -0.68789    
-116.00 -13.00    -0.75086    
-116.00 -12.00    -0.81674    
-116.00 -11.00    -0.89822    
-116.00 -10.00     -1.0050    
-116.00  -9.00     -1.1372    
-116.00  -8.00     -1.2810    
-116.00  -7.00     -1.4093    
-116.00  -6.00     -1.4878    
-116.00  -5.00     -1.4837    
-116.00  -4.00     -1.3766    
-116.00  -3.00     -1.1660    
-116.00  -2.00    -0.87489    
-116.00  -1.00    -0.54564    
-116.00   0.00    -0.23135    
-116.00   1.00     0.16955E-01
-116.00   2.00     0.16267    
-116.00   3.00     0.19227    
-116.00   4.00     0.11781    
-116.00   5.00    -0.27419E-01
-116.00   6.00    -0.19870    
-116.00   7.00    -0.35234    
-116.00   8.00    -0.45693    
-116.00   9.00    -0.50042    
-116.00  10.00    -0.49099    
-116.00  11.00    -0.45193    
-116.00  12.00    -0.41227    
-116.00  13.00    -0.39636    
-116.00  14.00    -0.41562    
-116.00  15.00    -0.46495    
-116.00  16.00    -0.52483    
-116.00  17.00    -0.56830    
-116.00  18.00    -0.57048    
-116.00  19.00    -0.51749    
-116.00  20.00    -0.41215    
-116.00  21.00    -0.27440    
-116.00  22.00    -0.13639    
-116.00  23.00    -0.33618E-01
-116.00  24.00     0.52567E-02
-116.00  25.00    -0.33123E-01
-116.00  26.00    -0.14254    
-116.00  27.00    -0.29849    
-116.00  28.00    -0.46469    
-116.00  29.00    -0.60297    
-116.00  30.00    -0.68390    
-116.00  31.00    -0.69494    
-116.00  32.00    -0.64397    
-116.00  33.00    -0.55713    
-116.00  34.00    -0.47145    
-116.00  35.00    -0.42446    
-116.00  36.00    -0.44350    
-116.00  37.00    -0.53780    
-116.00  38.00    -0.69554    
-116.00  39.00    -0.88668    
-116.00  40.00     -1.0710    
-116.00  41.00     -1.2088    
-116.00  42.00     -1.2718    
-116.00  43.00     -1.2509    
-116.00  44.00     -1.1583    
-116.00  45.00     -1.0242    
-116.00  46.00    -0.88848    
-116.00  47.00    -0.78940    
-116.00  48.00    -0.75280    
-116.00  49.00    -0.78547    
-116.00  50.00    -0.87315    
-116.00  51.00    -0.98486    
-116.00  52.00     -1.0819    
-116.00  53.00     -1.1286    
-116.00  54.00     -1.1022    
-116.00  55.00    -0.99920    
-116.00  56.00    -0.83497    
-116.00  57.00    -0.63898    
-116.00  58.00    -0.44609    
-116.00  59.00    -0.28598    
-116.00  60.00    -0.17603    
-116.00  61.00    -0.11702    
-116.00  62.00    -0.95325E-01
-116.00  63.00    -0.88774E-01
-116.00  64.00    -0.75354E-01
-116.00  65.00    -0.41211E-01
-116.00  66.00     0.14904E-01
-116.00  67.00     0.81548E-01
-116.00  68.00     0.13925    
-116.00  69.00     0.16803    
-116.00  70.00     0.15556    
-116.00  71.00     0.10198    
-116.00  72.00     0.21042E-01
-116.00  73.00    -0.63811E-01
-116.00  74.00    -0.12750    
-116.00  75.00    -0.15179    
-116.00  76.00    -0.13278    
-116.00  77.00    -0.81575E-01
-116.00  78.00    -0.23091E-01
-116.00  79.00     0.13194E-01
-116.00  80.00     0.76827E-03
-116.00  81.00    -0.71305E-01
-116.00  82.00    -0.19788    
-116.00  83.00    -0.35398    
-116.00  84.00    -0.50432    
-116.00  85.00    -0.61255    
-116.00  86.00    -0.65313    
-116.00  87.00    -0.61461    
-116.00  88.00    -0.50967    
-116.00  89.00    -0.36419    
-115.00 -89.00    -0.20045    
-115.00 -88.00    -0.24915    
-115.00 -87.00    -0.30708    
-115.00 -86.00    -0.35974    
-115.00 -85.00    -0.40390    
-115.00 -84.00    -0.44025    
-115.00 -83.00    -0.47384    
-115.00 -82.00    -0.50953    
-115.00 -81.00    -0.54174    
-115.00 -80.00    -0.56078    
-115.00 -79.00    -0.55261    
-115.00 -78.00    -0.50628    
-115.00 -77.00    -0.42032    
-115.00 -76.00    -0.30980    
-115.00 -75.00    -0.20160    
-115.00 -74.00    -0.13211    
-115.00 -73.00    -0.13391    
-115.00 -72.00    -0.22686    
-115.00 -71.00    -0.40782    
-115.00 -70.00    -0.64944    
-115.00 -69.00    -0.90526    
-115.00 -68.00     -1.1204    
-115.00 -67.00     -1.2471    
-115.00 -66.00     -1.2566    
-115.00 -65.00     -1.1484    
-115.00 -64.00    -0.94920    
-115.00 -63.00    -0.70543    
-115.00 -62.00    -0.46964    
-115.00 -61.00    -0.28575    
-115.00 -60.00    -0.17802    
-115.00 -59.00    -0.14589    
-115.00 -58.00    -0.16754    
-115.00 -57.00    -0.20941    
-115.00 -56.00    -0.23869    
-115.00 -55.00    -0.23473    
-115.00 -54.00    -0.19579    
-115.00 -53.00    -0.13807    
-115.00 -52.00    -0.89359E-01
-115.00 -51.00    -0.78362E-01
-115.00 -50.00    -0.12377    
-115.00 -49.00    -0.22712    
-115.00 -48.00    -0.37232    
-115.00 -47.00    -0.53002    
-115.00 -46.00    -0.66726    
-115.00 -45.00    -0.75766    
-115.00 -44.00    -0.78929    
-115.00 -43.00    -0.76713    
-115.00 -42.00    -0.71029    
-115.00 -41.00    -0.64477    
-115.00 -40.00    -0.59413    
-115.00 -39.00    -0.57208    
-115.00 -38.00    -0.57899    
-115.00 -37.00    -0.60329    
-115.00 -36.00    -0.62717    
-115.00 -35.00    -0.63412    
-115.00 -34.00    -0.61549    
-115.00 -33.00    -0.57376    
-115.00 -32.00    -0.52127    
-115.00 -31.00    -0.47516    
-115.00 -30.00    -0.45044    
-115.00 -29.00    -0.45384    
-115.00 -28.00    -0.48079    
-115.00 -27.00    -0.51670    
-115.00 -26.00    -0.54206    
-115.00 -25.00    -0.53962    
-115.00 -24.00    -0.50090    
-115.00 -23.00    -0.42984    
-115.00 -22.00    -0.34218    
-115.00 -21.00    -0.26072    
-115.00 -20.00    -0.20827    
-115.00 -19.00    -0.20071    
-115.00 -18.00    -0.24253    
-115.00 -17.00    -0.32650    
-115.00 -16.00    -0.43735    
-115.00 -15.00    -0.55802    
-115.00 -14.00    -0.67609    
-115.00 -13.00    -0.78777    
-115.00 -12.00    -0.89806    
-115.00 -11.00     -1.0167    
-115.00 -10.00     -1.1513    
-115.00  -9.00     -1.3011    
-115.00  -8.00     -1.4518    
-115.00  -7.00     -1.5773    
-115.00  -6.00     -1.6440    
-115.00  -5.00     -1.6211    
-115.00  -4.00     -1.4901    
-115.00  -3.00     -1.2534    
-115.00  -2.00    -0.93646    
-115.00  -1.00    -0.58439    
-115.00   0.00    -0.25226    
-115.00   1.00     0.78368E-02
-115.00   2.00     0.15942    
-115.00   3.00     0.19036    
-115.00   4.00     0.11518    
-115.00   5.00    -0.29814E-01
-115.00   6.00    -0.19707    
-115.00   7.00    -0.34095    
-115.00   8.00    -0.42958    
-115.00   9.00    -0.45223    
-115.00  10.00    -0.42004    
-115.00  11.00    -0.36037    
-115.00  12.00    -0.30662    
-115.00  13.00    -0.28680    
-115.00  14.00    -0.31445    
-115.00  15.00    -0.38455    
-115.00  16.00    -0.47553    
-115.00  17.00    -0.55660    
-115.00  18.00    -0.59806    
-115.00  19.00    -0.58113    
-115.00  20.00    -0.50453    
-115.00  21.00    -0.38552    
-115.00  22.00    -0.25530    
-115.00  23.00    -0.14999    
-115.00  24.00    -0.10006    
-115.00  25.00    -0.12129    
-115.00  26.00    -0.20997    
-115.00  27.00    -0.34375    
-115.00  28.00    -0.48804    
-115.00  29.00    -0.60593    
-115.00  30.00    -0.66894    
-115.00  31.00    -0.66538    
-115.00  32.00    -0.60390    
-115.00  33.00    -0.51128    
-115.00  34.00    -0.42484    
-115.00  35.00    -0.38180    
-115.00  36.00    -0.40843    
-115.00  37.00    -0.51209    
-115.00  38.00    -0.67855    
-115.00  39.00    -0.87524    
-115.00  40.00     -1.0598    
-115.00  41.00     -1.1912    
-115.00  42.00     -1.2413    
-115.00  43.00     -1.2021    
-115.00  44.00     -1.0882    
-115.00  45.00    -0.93245    
-115.00  46.00    -0.77770    
-115.00  47.00    -0.66436    
-115.00  48.00    -0.61962    
-115.00  49.00    -0.65058    
-115.00  50.00    -0.74233    
-115.00  51.00    -0.86268    
-115.00  52.00    -0.97145    
-115.00  53.00     -1.0317    
-115.00  54.00     -1.0198    
-115.00  55.00    -0.93131    
-115.00  56.00    -0.78136    
-115.00  57.00    -0.59911    
-115.00  58.00    -0.41908    
-115.00  59.00    -0.27047    
-115.00  60.00    -0.17015    
-115.00  61.00    -0.11842    
-115.00  62.00    -0.10154    
-115.00  63.00    -0.97310E-01
-115.00  64.00    -0.84241E-01
-115.00  65.00    -0.49054E-01
-115.00  66.00     0.87981E-02
-115.00  67.00     0.77351E-01
-115.00  68.00     0.13689    
-115.00  69.00     0.16754    
-115.00  70.00     0.15721    
-115.00  71.00     0.10658    
-115.00  72.00     0.28944E-01
-115.00  73.00    -0.51733E-01
-115.00  74.00    -0.11116    
-115.00  75.00    -0.13179    
-115.00  76.00    -0.11040    
-115.00  77.00    -0.58764E-01
-115.00  78.00    -0.20702E-02
-115.00  79.00     0.30589E-01
-115.00  80.00     0.13213E-01
-115.00  81.00    -0.64364E-01
-115.00  82.00    -0.19593    
-115.00  83.00    -0.35616    
-115.00  84.00    -0.50924    
-115.00  85.00    -0.61836    
-115.00  86.00    -0.65898    
-115.00  87.00    -0.61958    
-115.00  88.00    -0.51330    
-115.00  89.00    -0.36611    
-114.00 -89.00    -0.20533    
-114.00 -88.00    -0.25750    
-114.00 -87.00    -0.31698    
-114.00 -86.00    -0.36922    
-114.00 -85.00    -0.41098    
-114.00 -84.00    -0.44349    
-114.00 -83.00    -0.47213    
-114.00 -82.00    -0.50293    
-114.00 -81.00    -0.53041    
-114.00 -80.00    -0.54535    
-114.00 -79.00    -0.53370    
-114.00 -78.00    -0.48439    
-114.00 -77.00    -0.39560    
-114.00 -76.00    -0.28173    
-114.00 -75.00    -0.16920    
-114.00 -74.00    -0.94493E-01
-114.00 -73.00    -0.90596E-01
-114.00 -72.00    -0.17812    
-114.00 -71.00    -0.35504    
-114.00 -70.00    -0.59497    
-114.00 -69.00    -0.85212    
-114.00 -68.00     -1.0720    
-114.00 -67.00     -1.2064    
-114.00 -66.00     -1.2256    
-114.00 -65.00     -1.1277    
-114.00 -64.00    -0.93823    
-114.00 -63.00    -0.70214    
-114.00 -62.00    -0.47135    
-114.00 -61.00    -0.29000    
-114.00 -60.00    -0.18283    
-114.00 -59.00    -0.15035    
-114.00 -58.00    -0.17181    
-114.00 -57.00    -0.21450    
-114.00 -56.00    -0.24596    
-114.00 -55.00    -0.24553    
-114.00 -54.00    -0.21087    
-114.00 -53.00    -0.15778    
-114.00 -52.00    -0.11377    
-114.00 -51.00    -0.10788    
-114.00 -50.00    -0.15985    
-114.00 -49.00    -0.27278    
-114.00 -48.00    -0.43239    
-114.00 -47.00    -0.61077    
-114.00 -46.00    -0.77568    
-114.00 -45.00    -0.90009    
-114.00 -44.00    -0.97012    
-114.00 -43.00    -0.98740    
-114.00 -42.00    -0.96691    
-114.00 -41.00    -0.93029    
-114.00 -40.00    -0.89738    
-114.00 -39.00    -0.87942    
-114.00 -38.00    -0.87613    
-114.00 -37.00    -0.87722    
-114.00 -36.00    -0.86791    
-114.00 -35.00    -0.83598    
-114.00 -34.00    -0.77752    
-114.00 -33.00    -0.69938    
-114.00 -32.00    -0.61719    
-114.00 -31.00    -0.54976    
-114.00 -30.00    -0.51192    
-114.00 -29.00    -0.50853    
-114.00 -28.00    -0.53194    
-114.00 -27.00    -0.56395    
-114.00 -26.00    -0.58173    
-114.00 -25.00    -0.56566    
-114.00 -24.00    -0.50642    
-114.00 -23.00    -0.40886    
-114.00 -22.00    -0.29116    
-114.00 -21.00    -0.17972    
-114.00 -20.00    -0.10134    
-114.00 -19.00    -0.75465E-01
-114.00 -18.00    -0.10906    
-114.00 -17.00    -0.19577    
-114.00 -16.00    -0.31943    
-114.00 -15.00    -0.46057    
-114.00 -14.00    -0.60334    
-114.00 -13.00    -0.74026    
-114.00 -12.00    -0.87310    
-114.00 -11.00     -1.0094    
-114.00 -10.00     -1.1562    
-114.00  -9.00     -1.3130    
-114.00  -8.00     -1.4674    
-114.00  -7.00     -1.5953    
-114.00  -6.00     -1.6650    
-114.00  -5.00     -1.6472    
-114.00  -4.00     -1.5239    
-114.00  -3.00     -1.2971    
-114.00  -2.00    -0.99096    
-114.00  -1.00    -0.64933    
-114.00   0.00    -0.32580    
-114.00   1.00    -0.71416E-01
-114.00   2.00     0.77956E-01
-114.00   3.00     0.11039    
-114.00   4.00     0.40308E-01
-114.00   5.00    -0.96161E-01
-114.00   6.00    -0.25165    
-114.00   7.00    -0.38070    
-114.00   8.00    -0.45182    
-114.00   9.00    -0.45499    
-114.00  10.00    -0.40268    
-114.00  11.00    -0.32420    
-114.00  12.00    -0.25537    
-114.00  13.00    -0.22682    
-114.00  14.00    -0.25431    
-114.00  15.00    -0.33412    
-114.00  16.00    -0.44467    
-114.00  17.00    -0.55361    
-114.00  18.00    -0.62816    
-114.00  19.00    -0.64549    
-114.00  20.00    -0.59981    
-114.00  21.00    -0.50422    
-114.00  22.00    -0.38676    
-114.00  23.00    -0.28189    
-114.00  24.00    -0.22015    
-114.00  25.00    -0.21896    
-114.00  26.00    -0.27756    
-114.00  27.00    -0.37736    
-114.00  28.00    -0.48768    
-114.00  29.00    -0.57527    
-114.00  30.00    -0.61453    
-114.00  31.00    -0.59559    
-114.00  32.00    -0.52779    
-114.00  33.00    -0.43736    
-114.00  34.00    -0.35999    
-114.00  35.00    -0.33043    
-114.00  36.00    -0.37196    
-114.00  37.00    -0.48883    
-114.00  38.00    -0.66405    
-114.00  39.00    -0.86304    
-114.00  40.00     -1.0425    
-114.00  41.00     -1.1617    
-114.00  42.00     -1.1940    
-114.00  43.00     -1.1336    
-114.00  44.00    -0.99796    
-114.00  45.00    -0.82286    
-114.00  46.00    -0.65317    
-114.00  47.00    -0.53067    
-114.00  48.00    -0.48295    
-114.00  49.00    -0.51656    
-114.00  50.00    -0.61547    
-114.00  51.00    -0.74617    
-114.00  52.00    -0.86723    
-114.00  53.00    -0.94081    
-114.00  54.00    -0.94276    
-114.00  55.00    -0.86837    
-114.00  56.00    -0.73263    
-114.00  57.00    -0.56444    
-114.00  58.00    -0.39789    
-114.00  59.00    -0.26151    
-114.00  60.00    -0.17139    
-114.00  61.00    -0.12723    
-114.00  62.00    -0.11504    
-114.00  63.00    -0.11267    
-114.00  64.00    -0.99264E-01
-114.00  65.00    -0.62290E-01
-114.00  66.00    -0.20603E-02
-114.00  67.00     0.68819E-01
-114.00  68.00     0.13035    
-114.00  69.00     0.16282    
-114.00  70.00     0.15447    
-114.00  71.00     0.10655    
-114.00  72.00     0.32202E-01
-114.00  73.00    -0.44197E-01
-114.00  74.00    -0.99060E-01
-114.00  75.00    -0.11557    
-114.00  76.00    -0.91183E-01
-114.00  77.00    -0.38470E-01
-114.00  78.00     0.17073E-01
-114.00  79.00     0.46646E-01
-114.00  80.00     0.24806E-01
-114.00  81.00    -0.57896E-01
-114.00  82.00    -0.19416    
-114.00  83.00    -0.35829    
-114.00  84.00    -0.51396    
-114.00  85.00    -0.62396    
-114.00  86.00    -0.66459    
-114.00  87.00    -0.62437    
-114.00  88.00    -0.51681    
-114.00  89.00    -0.36798    
-113.00 -89.00    -0.21020    
-113.00 -88.00    -0.26579    
-113.00 -87.00    -0.32682    
-113.00 -86.00    -0.37865    
-113.00 -85.00    -0.41809    
-113.00 -84.00    -0.44689    
-113.00 -83.00    -0.47089    
-113.00 -82.00    -0.49707    
-113.00 -81.00    -0.52028    
-113.00 -80.00    -0.53177    
-113.00 -79.00    -0.51739    
-113.00 -78.00    -0.46593    
-113.00 -77.00    -0.37510    
-113.00 -76.00    -0.25849    
-113.00 -75.00    -0.14186    
-113.00 -74.00    -0.61686E-01
-113.00 -73.00    -0.51344E-01
-113.00 -72.00    -0.13225    
-113.00 -71.00    -0.30363    
-113.00 -70.00    -0.54038    
-113.00 -69.00    -0.79768    
-113.00 -68.00     -1.0217    
-113.00 -67.00     -1.1638    
-113.00 -66.00     -1.1937    
-113.00 -65.00     -1.1078    
-113.00 -64.00    -0.92989    
-113.00 -63.00    -0.70364    
-113.00 -62.00    -0.47979    
-113.00 -61.00    -0.30235    
-113.00 -60.00    -0.19623    
-113.00 -59.00    -0.16284    
-113.00 -58.00    -0.18248    
-113.00 -57.00    -0.22338    
-113.00 -56.00    -0.25367    
-113.00 -55.00    -0.25304    
-113.00 -54.00    -0.21910    
-113.00 -53.00    -0.16766    
-113.00 -52.00    -0.12648    
-113.00 -51.00    -0.12515    
-113.00 -50.00    -0.18452    
-113.00 -49.00    -0.30905    
-113.00 -48.00    -0.48572    
-113.00 -47.00    -0.68743    
-113.00 -46.00    -0.88188    
-113.00 -45.00     -1.0408    
-113.00 -44.00     -1.1480    
-113.00 -43.00     -1.2017    
-113.00 -42.00     -1.2131    
-113.00 -41.00     -1.2003    
-113.00 -40.00     -1.1801    
-113.00 -39.00     -1.1620    
-113.00 -38.00     -1.1456    
-113.00 -37.00     -1.1219    
-113.00 -36.00     -1.0789    
-113.00 -35.00     -1.0084    
-113.00 -34.00    -0.91069    
-113.00 -33.00    -0.79688    
-113.00 -32.00    -0.68612    
-113.00 -31.00    -0.59952    
-113.00 -30.00    -0.55272    
-113.00 -29.00    -0.54971    
-113.00 -28.00    -0.58049    
-113.00 -27.00    -0.62333    
-113.00 -26.00    -0.65132    
-113.00 -25.00    -0.64092    
-113.00 -24.00    -0.57977    
-113.00 -23.00    -0.47108    
-113.00 -22.00    -0.33318    
-113.00 -21.00    -0.19432    
-113.00 -20.00    -0.84429E-01
-113.00 -19.00    -0.26674E-01
-113.00 -18.00    -0.31515E-01
-113.00 -17.00    -0.95082E-01
-113.00 -16.00    -0.20223    
-113.00 -15.00    -0.33293    
-113.00 -14.00    -0.46958    
-113.00 -13.00    -0.60245    
-113.00 -12.00    -0.73138    
-113.00 -11.00    -0.86310    
-113.00 -10.00     -1.0053    
-113.00  -9.00     -1.1596    
-113.00  -8.00     -1.3169    
-113.00  -7.00     -1.4559    
-113.00  -6.00     -1.5474    
-113.00  -5.00     -1.5622    
-113.00  -4.00     -1.4807    
-113.00  -3.00     -1.3010    
-113.00  -2.00     -1.0424    
-113.00  -1.00    -0.74302    
-113.00   0.00    -0.45197    
-113.00   1.00    -0.21744    
-113.00   2.00    -0.74642E-01
-113.00   3.00    -0.36989E-01
-113.00   4.00    -0.93072E-01
-113.00   5.00    -0.21044    
-113.00   6.00    -0.34510    
-113.00   7.00    -0.45396    
-113.00   8.00    -0.50659    
-113.00   9.00    -0.49293    
-113.00  10.00    -0.42481    
-113.00  11.00    -0.33100    
-113.00  12.00    -0.24751    
-113.00  13.00    -0.20615    
-113.00  14.00    -0.22475    
-113.00  15.00    -0.30205    
-113.00  16.00    -0.41846    
-113.00  17.00    -0.54241    
-113.00  18.00    -0.64018    
-113.00  19.00    -0.68605    
-113.00  20.00    -0.66981    
-113.00  21.00    -0.59936    
-113.00  22.00    -0.49780    
-113.00  23.00    -0.39591    
-113.00  24.00    -0.32267    
-113.00  25.00    -0.29637    
-113.00  26.00    -0.31944    
-113.00  27.00    -0.37820    
-113.00  28.00    -0.44773    
-113.00  29.00    -0.50028    
-113.00  30.00    -0.51459    
-113.00  31.00    -0.48329    
-113.00  32.00    -0.41600    
-113.00  33.00    -0.33716    
-113.00  34.00    -0.27904    
-113.00  35.00    -0.27198    
-113.00  36.00    -0.33467    
-113.00  37.00    -0.46739    
-113.00  38.00    -0.65035    
-113.00  39.00    -0.84778    
-113.00  40.00     -1.0168    
-113.00  41.00     -1.1186    
-113.00  42.00     -1.1294    
-113.00  43.00     -1.0467    
-113.00  44.00    -0.89111    
-113.00  45.00    -0.70083    
-113.00  46.00    -0.52209    
-113.00  47.00    -0.39688    
-113.00  48.00    -0.35215    
-113.00  49.00    -0.39305    
-113.00  50.00    -0.50195    
-113.00  51.00    -0.64399    
-113.00  52.00    -0.77678    
-113.00  53.00    -0.86216    
-113.00  54.00    -0.87606    
-113.00  55.00    -0.81402    
-113.00  56.00    -0.69118    
-113.00  57.00    -0.53636    
-113.00  58.00    -0.38310    
-113.00  59.00    -0.25909    
-113.00  60.00    -0.17939    
-113.00  61.00    -0.14291    
-113.00  62.00    -0.13527    
-113.00  63.00    -0.13440    
-113.00  64.00    -0.12016    
-113.00  65.00    -0.80858E-01
-113.00  66.00    -0.17807E-01
-113.00  67.00     0.55654E-01
-113.00  68.00     0.11924    
-113.00  69.00     0.15342    
-113.00  70.00     0.14686    
-113.00  71.00     0.10143    
-113.00  72.00     0.30452E-01
-113.00  73.00    -0.41504E-01
-113.00  74.00    -0.91435E-01
-113.00  75.00    -0.10330    
-113.00  76.00    -0.75283E-01
-113.00  77.00    -0.20815E-01
-113.00  78.00     0.34249E-01
-113.00  79.00     0.61294E-01
-113.00  80.00     0.35488E-01
-113.00  81.00    -0.51941E-01
-113.00  82.00    -0.19260    
-113.00  83.00    -0.36039    
-113.00  84.00    -0.51848    
-113.00  85.00    -0.62935    
-113.00  86.00    -0.66999    
-113.00  87.00    -0.62896    
-113.00  88.00    -0.52019    
-113.00  89.00    -0.36979    
-112.00 -89.00    -0.21505    
-112.00 -88.00    -0.27404    
-112.00 -87.00    -0.33659    
-112.00 -86.00    -0.38805    
-112.00 -85.00    -0.42524    
-112.00 -84.00    -0.45046    
-112.00 -83.00    -0.47012    
-112.00 -82.00    -0.49198    
-112.00 -81.00    -0.51139    
-112.00 -80.00    -0.52008    
-112.00 -79.00    -0.50377    
-112.00 -78.00    -0.45106    
-112.00 -77.00    -0.35909    
-112.00 -76.00    -0.24045    
-112.00 -75.00    -0.12014    
-112.00 -74.00    -0.34455E-01
-112.00 -73.00    -0.17111E-01
-112.00 -72.00    -0.90360E-01
-112.00 -71.00    -0.25482    
-112.00 -70.00    -0.48688    
-112.00 -69.00    -0.74302    
-112.00 -68.00    -0.97029    
-112.00 -67.00     -1.1200    
-112.00 -66.00     -1.1610    
-112.00 -65.00     -1.0882    
-112.00 -64.00    -0.92367    
-112.00 -63.00    -0.70921    
-112.00 -62.00    -0.49415    
-112.00 -61.00    -0.32200    
-112.00 -60.00    -0.21752    
-112.00 -59.00    -0.18279    
-112.00 -58.00    -0.19905    
-112.00 -57.00    -0.23553    
-112.00 -56.00    -0.26119    
-112.00 -55.00    -0.25648    
-112.00 -54.00    -0.21943    
-112.00 -53.00    -0.16650    
-112.00 -52.00    -0.12607    
-112.00 -51.00    -0.12863    
-112.00 -50.00    -0.19606    
-112.00 -49.00    -0.33389    
-112.00 -48.00    -0.52964    
-112.00 -47.00    -0.75613    
-112.00 -46.00    -0.98011    
-112.00 -45.00     -1.1714    
-112.00 -44.00     -1.3110    
-112.00 -43.00     -1.3941    
-112.00 -42.00     -1.4290    
-112.00 -41.00     -1.4308    
-112.00 -40.00     -1.4150    
-112.00 -39.00     -1.3904    
-112.00 -38.00     -1.3571    
-112.00 -37.00     -1.3079    
-112.00 -36.00     -1.2332    
-112.00 -35.00     -1.1278    
-112.00 -34.00    -0.99553    
-112.00 -33.00    -0.85094    
-112.00 -32.00    -0.71637    
-112.00 -31.00    -0.61549    
-112.00 -30.00    -0.56548    
-112.00 -29.00    -0.57052    
-112.00 -28.00    -0.61922    
-112.00 -27.00    -0.68685    
-112.00 -26.00    -0.74221    
-112.00 -25.00    -0.75673    
-112.00 -24.00    -0.71311    
-112.00 -23.00    -0.61058    
-112.00 -22.00    -0.46518    
-112.00 -21.00    -0.30497    
-112.00 -20.00    -0.16176    
-112.00 -19.00    -0.62165E-01
-112.00 -18.00    -0.20800E-01
-112.00 -17.00    -0.37707E-01
-112.00 -16.00    -0.10064    
-112.00 -15.00    -0.19104    
-112.00 -14.00    -0.29150    
-112.00 -13.00    -0.39174    
-112.00 -12.00    -0.49121    
-112.00 -11.00    -0.59725    
-112.00 -10.00    -0.71954    
-112.00  -9.00    -0.86323    
-112.00  -8.00     -1.0232    
-112.00  -7.00     -1.1819    
-112.00  -6.00     -1.3123    
-112.00  -5.00     -1.3842    
-112.00  -4.00     -1.3742    
-112.00  -3.00     -1.2732    
-112.00  -2.00     -1.0920    
-112.00  -1.00    -0.85992    
-112.00   0.00    -0.61871    
-112.00   1.00    -0.41244    
-112.00   2.00    -0.27600    
-112.00   3.00    -0.22613    
-112.00   4.00    -0.25738    
-112.00   5.00    -0.34432    
-112.00   6.00    -0.44932    
-112.00   7.00    -0.53361    
-112.00   8.00    -0.56833    
-112.00   9.00    -0.54240    
-112.00  10.00    -0.46490    
-112.00  11.00    -0.36142    
-112.00  12.00    -0.26572    
-112.00  13.00    -0.20920    
-112.00  14.00    -0.21139    
-112.00  15.00    -0.27435    
-112.00  16.00    -0.38240    
-112.00  17.00    -0.50713    
-112.00  18.00    -0.61605    
-112.00  19.00    -0.68208    
-112.00  20.00    -0.69108    
-112.00  21.00    -0.64524    
-112.00  22.00    -0.56144    
-112.00  23.00    -0.46521    
-112.00  24.00    -0.38252    
-112.00  25.00    -0.33173    
-112.00  26.00    -0.31841    
-112.00  27.00    -0.33453    
-112.00  28.00    -0.36207    
-112.00  29.00    -0.38003    
-112.00  30.00    -0.37239    
-112.00  31.00    -0.33450    
-112.00  32.00    -0.27579    
-112.00  33.00    -0.21774    
-112.00  34.00    -0.18765    
-112.00  35.00    -0.20996    
-112.00  36.00    -0.29768    
-112.00  37.00    -0.44670    
-112.00  38.00    -0.63482    
-112.00  39.00    -0.82607    
-112.00  40.00    -0.97946    
-112.00  41.00     -1.0597    
-112.00  42.00     -1.0469    
-112.00  43.00    -0.94275    
-112.00  44.00    -0.77093    
-112.00  45.00    -0.57153    
-112.00  46.00    -0.39110    
-112.00  47.00    -0.27066    
-112.00  48.00    -0.23534    
-112.00  49.00    -0.28807    
-112.00  50.00    -0.40925    
-112.00  51.00    -0.56271    
-112.00  52.00    -0.70557    
-112.00  53.00    -0.79997    
-112.00  54.00    -0.82264    
-112.00  55.00    -0.76998    
-112.00  56.00    -0.65768    
-112.00  57.00    -0.51467    
-112.00  58.00    -0.37385    
-112.00  59.00    -0.26192    
-112.00  60.00    -0.19264    
-112.00  61.00    -0.16393    
-112.00  62.00    -0.16084    
-112.00  63.00    -0.16137    
-112.00  64.00    -0.14607    
-112.00  65.00    -0.10422    
-112.00  66.00    -0.38195E-01
-112.00  67.00     0.37869E-01
-112.00  68.00     0.10340    
-112.00  69.00     0.13907    
-112.00  70.00     0.13412    
-112.00  71.00     0.90952E-01
-112.00  72.00     0.23475E-01
-112.00  73.00    -0.43825E-01
-112.00  74.00    -0.88416E-01
-112.00  75.00    -0.95072E-01
-112.00  76.00    -0.62778E-01
-112.00  77.00    -0.58703E-02
-112.00  78.00     0.49397E-01
-112.00  79.00     0.74479E-01
-112.00  80.00     0.45212E-01
-112.00  81.00    -0.46535E-01
-112.00  82.00    -0.19126    
-112.00  83.00    -0.36247    
-112.00  84.00    -0.52279    
-112.00  85.00    -0.63454    
-112.00  86.00    -0.67515    
-112.00  87.00    -0.63337    
-112.00  88.00    -0.52345    
-112.00  89.00    -0.37155    
-111.00 -89.00    -0.21987    
-111.00 -88.00    -0.28223    
-111.00 -87.00    -0.34628    
-111.00 -86.00    -0.39742    
-111.00 -85.00    -0.43244    
-111.00 -84.00    -0.45421    
-111.00 -83.00    -0.46984    
-111.00 -82.00    -0.48766    
-111.00 -81.00    -0.50376    
-111.00 -80.00    -0.51029    
-111.00 -79.00    -0.49288    
-111.00 -78.00    -0.43988    
-111.00 -77.00    -0.34773    
-111.00 -76.00    -0.22792    
-111.00 -75.00    -0.10453    
-111.00 -74.00    -0.13483E-01
-111.00 -73.00     0.11217E-01
-111.00 -72.00    -0.53528E-01
-111.00 -71.00    -0.20978    
-111.00 -70.00    -0.43564    
-111.00 -69.00    -0.68923    
-111.00 -68.00    -0.91866    
-111.00 -67.00     -1.0754    
-111.00 -66.00     -1.1276    
-111.00 -65.00     -1.0688    
-111.00 -64.00    -0.91893    
-111.00 -63.00    -0.71797    
-111.00 -62.00    -0.51346    
-111.00 -61.00    -0.34802    
-111.00 -60.00    -0.24594    
-111.00 -59.00    -0.20969    
-111.00 -58.00    -0.22132    
-111.00 -57.00    -0.25101    
-111.00 -56.00    -0.26879    
-111.00 -55.00    -0.25622    
-111.00 -54.00    -0.21228    
-111.00 -53.00    -0.15463    
-111.00 -52.00    -0.11277    
-111.00 -51.00    -0.11833    
-111.00 -50.00    -0.19417    
-111.00 -49.00    -0.34644    
-111.00 -48.00    -0.56240    
-111.00 -47.00    -0.81384    
-111.00 -46.00     -1.0655    
-111.00 -45.00     -1.2846    
-111.00 -44.00     -1.4492    
-111.00 -43.00     -1.5516    
-111.00 -42.00     -1.5981    
-111.00 -41.00     -1.6027    
-111.00 -40.00     -1.5808    
-111.00 -39.00     -1.5422    
-111.00 -38.00     -1.4885    
-111.00 -37.00     -1.4144    
-111.00 -36.00     -1.3125    
-111.00 -35.00     -1.1795    
-111.00 -34.00     -1.0213    
-111.00 -33.00    -0.85451    
-111.00 -32.00    -0.70377    
-111.00 -31.00    -0.59508    
-111.00 -30.00    -0.54760    
-111.00 -29.00    -0.56673    
-111.00 -28.00    -0.64088    
-111.00 -27.00    -0.74336    
-111.00 -26.00    -0.83908    
-111.00 -25.00    -0.89406    
-111.00 -24.00    -0.88482    
-111.00 -23.00    -0.80474    
-111.00 -22.00    -0.66543    
-111.00 -21.00    -0.49277    
-111.00 -20.00    -0.31904    
-111.00 -19.00    -0.17366    
-111.00 -18.00    -0.75656E-01
-111.00 -17.00    -0.30026E-01
-111.00 -16.00    -0.28936E-01
-111.00 -15.00    -0.57053E-01
-111.00 -14.00    -0.98810E-01
-111.00 -13.00    -0.14490    
-111.00 -12.00    -0.19563    
-111.00 -11.00    -0.25992    
-111.00 -10.00    -0.35043    
-111.00  -9.00    -0.47653    
-111.00  -8.00    -0.63790    
-111.00  -7.00    -0.82108    
-111.00  -6.00     -1.0007    
-111.00  -5.00     -1.1452    
-111.00  -4.00     -1.2252    
-111.00  -3.00     -1.2229    
-111.00  -2.00     -1.1373    
-111.00  -1.00    -0.98666    
-111.00   0.00    -0.80367    
-111.00   1.00    -0.62745    
-111.00   2.00    -0.49304    
-111.00   3.00    -0.42216    
-111.00   4.00    -0.41785    
-111.00   5.00    -0.46447    
-111.00   6.00    -0.53315    
-111.00   7.00    -0.59091    
-111.00   8.00    -0.61069    
-111.00   9.00    -0.57929    
-111.00  10.00    -0.50097    
-111.00  11.00    -0.39562    
-111.00  12.00    -0.29238    
-111.00  13.00    -0.22059    
-111.00  14.00    -0.20099    
-111.00  15.00    -0.23961    
-111.00  16.00    -0.32631    
-111.00  17.00    -0.43800    
-111.00  18.00    -0.54556    
-111.00  19.00    -0.62221    
-111.00  20.00    -0.65077    
-111.00  21.00    -0.62770    
-111.00  22.00    -0.56289    
-111.00  23.00    -0.47553    
-111.00  24.00    -0.38742    
-111.00  25.00    -0.31616    
-111.00  26.00    -0.27016    
-111.00  27.00    -0.24715    
-111.00  28.00    -0.23655    
-111.00  29.00    -0.22467    
-111.00  30.00    -0.20104    
-111.00  31.00    -0.16365    
-111.00  32.00    -0.12113    
-111.00  33.00    -0.91072E-01
-111.00  34.00    -0.94734E-01
-111.00  35.00    -0.14972    
-111.00  36.00    -0.26288    
-111.00  37.00    -0.42580    
-111.00  38.00    -0.61459    
-111.00  39.00    -0.79429    
-111.00  40.00    -0.92718    
-111.00  41.00    -0.98265    
-111.00  42.00    -0.94594    
-111.00  43.00    -0.82308    
-111.00  44.00    -0.64057    
-111.00  45.00    -0.43960    
-111.00  46.00    -0.26585    
-111.00  47.00    -0.15808    
-111.00  48.00    -0.13856    
-111.00  49.00    -0.20721    
-111.00  50.00    -0.34218    
-111.00  51.00    -0.50618    
-111.00  52.00    -0.65637    
-111.00  53.00    -0.75591    
-111.00  54.00    -0.78311    
-111.00  55.00    -0.73591    
-111.00  56.00    -0.63101    
-111.00  57.00    -0.49760    
-111.00  58.00    -0.36794    
-111.00  59.00    -0.26756    
-111.00  60.00    -0.20865    
-111.00  61.00    -0.18791    
-111.00  62.00    -0.18963    
-111.00  63.00    -0.19180    
-111.00  64.00    -0.17563    
-111.00  65.00    -0.13141    
-111.00  66.00    -0.62619E-01
-111.00  67.00     0.15783E-01
-111.00  68.00     0.82940E-01
-111.00  69.00     0.11979    
-111.00  70.00     0.11617    
-111.00  71.00     0.75039E-01
-111.00  72.00     0.11207E-01
-111.00  73.00    -0.51201E-01
-111.00  74.00    -0.90024E-01
-111.00  75.00    -0.90893E-01
-111.00  76.00    -0.53682E-01
-111.00  77.00     0.63382E-02
-111.00  78.00     0.62484E-01
-111.00  79.00     0.86167E-01
-111.00  80.00     0.53941E-01
-111.00  81.00    -0.41707E-01
-111.00  82.00    -0.19017    
-111.00  83.00    -0.36453    
-111.00  84.00    -0.52690    
-111.00  85.00    -0.63952    
-111.00  86.00    -0.68009    
-111.00  87.00    -0.63759    
-111.00  88.00    -0.52659    
-111.00  89.00    -0.37325    
-110.00 -89.00    -0.22468    
-110.00 -88.00    -0.29037    
-110.00 -87.00    -0.35591    
-110.00 -86.00    -0.40675    
-110.00 -85.00    -0.43968    
-110.00 -84.00    -0.45814    
-110.00 -83.00    -0.47006    
-110.00 -82.00    -0.48411    
-110.00 -81.00    -0.49737    
-110.00 -80.00    -0.50239    
-110.00 -79.00    -0.48472    
-110.00 -78.00    -0.43244    
-110.00 -77.00    -0.34113    
-110.00 -76.00    -0.22111    
-110.00 -75.00    -0.95403E-01
-110.00 -74.00     0.64765E-03
-110.00 -73.00     0.32847E-01
-110.00 -72.00    -0.22727E-01
-110.00 -71.00    -0.16961    
-110.00 -70.00    -0.38783    
-110.00 -69.00    -0.63738    
-110.00 -68.00    -0.86764    
-110.00 -67.00     -1.0305    
-110.00 -66.00     -1.0936    
-110.00 -65.00     -1.0492    
-110.00 -64.00    -0.91494    
-110.00 -63.00    -0.72891    
-110.00 -62.00    -0.53661    
-110.00 -61.00    -0.37936    
-110.00 -60.00    -0.28071    
-110.00 -59.00    -0.24319    
-110.00 -58.00    -0.24942    
-110.00 -57.00    -0.27050    
-110.00 -56.00    -0.27766    
-110.00 -55.00    -0.25385    
-110.00 -54.00    -0.19954    
-110.00 -53.00    -0.13404    
-110.00 -52.00    -0.88480E-01
-110.00 -51.00    -0.95871E-01
-110.00 -50.00    -0.17995    
-110.00 -49.00    -0.34709    
-110.00 -48.00    -0.58345    
-110.00 -47.00    -0.85879    
-110.00 -46.00     -1.1349    
-110.00 -45.00     -1.3756    
-110.00 -44.00     -1.5558    
-110.00 -43.00     -1.6655    
-110.00 -42.00     -1.7102    
-110.00 -41.00     -1.7043    
-110.00 -40.00     -1.6651    
-110.00 -39.00     -1.6049    
-110.00 -38.00     -1.5282    
-110.00 -37.00     -1.4320    
-110.00 -36.00     -1.3101    
-110.00 -35.00     -1.1600    
-110.00 -34.00    -0.98774    
-110.00 -33.00    -0.81014    
-110.00 -32.00    -0.65264    
-110.00 -31.00    -0.54281    
-110.00 -30.00    -0.50197    
-110.00 -29.00    -0.53763    
-110.00 -28.00    -0.63943    
-110.00 -27.00    -0.78019    
-110.00 -26.00    -0.92209    
-110.00 -25.00     -1.0262    
-110.00 -24.00     -1.0625    
-110.00 -23.00     -1.0174    
-110.00 -22.00    -0.89659    
-110.00 -21.00    -0.72206    
-110.00 -20.00    -0.52519    
-110.00 -19.00    -0.33740    
-110.00 -18.00    -0.18199    
-110.00 -17.00    -0.69350E-01
-110.00 -16.00     0.30356E-02
-110.00 -15.00     0.46217E-01
-110.00 -14.00     0.72896E-01
-110.00 -13.00     0.90648E-01
-110.00 -12.00     0.97800E-01
-110.00 -11.00     0.83479E-01
-110.00 -10.00     0.31840E-01
-110.00  -9.00    -0.70991E-01
-110.00  -8.00    -0.22977    
-110.00  -7.00    -0.43539    
-110.00  -6.00    -0.66447    
-110.00  -5.00    -0.88363    
-110.00  -4.00     -1.0575    
-110.00  -3.00     -1.1579    
-110.00  -2.00     -1.1716    
-110.00  -1.00     -1.1042    
-110.00   0.00    -0.97840    
-110.00   1.00    -0.82816    
-110.00   2.00    -0.68903    
-110.00   3.00    -0.58888    
-110.00   4.00    -0.54088    
-110.00   5.00    -0.54097    
-110.00   6.00    -0.57059    
-110.00   7.00    -0.60337    
-110.00   8.00    -0.61392    
-110.00   9.00    -0.58590    
-110.00  10.00    -0.51692    
-110.00  11.00    -0.41902    
-110.00  12.00    -0.31470    
-110.00  13.00    -0.22983    
-110.00  14.00    -0.18573    
-110.00  15.00    -0.19289    
-110.00  16.00    -0.24791    
-110.00  17.00    -0.33482    
-110.00  18.00    -0.42977    
-110.00  19.00    -0.50792    
-110.00  20.00    -0.55011    
-110.00  21.00    -0.54747    
-110.00  22.00    -0.50272    
-110.00  23.00    -0.42800    
-110.00  24.00    -0.34016    
-110.00  25.00    -0.25523    
-110.00  26.00    -0.18388    
-110.00  27.00    -0.12930    
-110.00  28.00    -0.88162E-01
-110.00  29.00    -0.53973E-01
-110.00  30.00    -0.21649E-01
-110.00  31.00     0.85639E-02
-110.00  32.00     0.29354E-01
-110.00  33.00     0.27651E-01
-110.00  34.00    -0.11220E-01
-110.00  35.00    -0.97758E-01
-110.00  36.00    -0.23278    
-110.00  37.00    -0.40417    
-110.00  38.00    -0.58729    
-110.00  39.00    -0.74944    
-110.00  40.00    -0.85740    
-110.00  41.00    -0.88627    
-110.00  42.00    -0.82686    
-110.00  43.00    -0.68957    
-110.00  44.00    -0.50323    
-110.00  45.00    -0.30905    
-110.00  46.00    -0.15063    
-110.00  47.00    -0.63289E-01
-110.00  48.00    -0.65341E-01
-110.00  49.00    -0.15316    
-110.00  50.00    -0.30248    
-110.00  51.00    -0.47514    
-110.00  52.00    -0.62897    
-110.00  53.00    -0.72896    
-110.00  54.00    -0.75574    
-110.00  55.00    -0.70949    
-110.00  56.00    -0.60835    
-110.00  57.00    -0.48201    
-110.00  58.00    -0.36203    
-110.00  59.00    -0.27261    
-110.00  60.00    -0.22413    
-110.00  61.00    -0.21182    
-110.00  62.00    -0.21897    
-110.00  63.00    -0.22345    
-110.00  64.00    -0.20707    
-110.00  65.00    -0.16111    
-110.00  66.00    -0.90162E-01
-110.00  67.00    -0.10011E-01
-110.00  68.00     0.58230E-01
-110.00  69.00     0.95772E-01
-110.00  70.00     0.93142E-01
-110.00  71.00     0.53827E-01
-110.00  72.00    -0.62520E-02
-110.00  73.00    -0.63530E-01
-110.00  74.00    -0.96161E-01
-110.00  75.00    -0.90674E-01
-110.00  76.00    -0.47940E-01
-110.00  77.00     0.15836E-01
-110.00  78.00     0.73509E-01
-110.00  79.00     0.96343E-01
-110.00  80.00     0.61649E-01
-110.00  81.00    -0.37484E-01
-110.00  82.00    -0.18936    
-110.00  83.00    -0.36660    
-110.00  84.00    -0.53081    
-110.00  85.00    -0.64431    
-110.00  86.00    -0.68482    
-110.00  87.00    -0.64163    
-110.00  88.00    -0.52959    
-110.00  89.00    -0.37489    
-109.00 -89.00    -0.22946    
-109.00 -88.00    -0.29845    
-109.00 -87.00    -0.36547    
-109.00 -86.00    -0.41604    
-109.00 -85.00    -0.44698    
-109.00 -84.00    -0.46227    
-109.00 -83.00    -0.47077    
-109.00 -82.00    -0.48132    
-109.00 -81.00    -0.49220    
-109.00 -80.00    -0.49635    
-109.00 -79.00    -0.47926    
-109.00 -78.00    -0.42872    
-109.00 -77.00    -0.33933    
-109.00 -76.00    -0.22015    
-109.00 -75.00    -0.93036E-01
-109.00 -74.00     0.74749E-02
-109.00 -73.00     0.47104E-01
-109.00 -72.00     0.11762E-02
-109.00 -71.00    -0.13534    
-109.00 -70.00    -0.34453    
-109.00 -69.00    -0.58848    
-109.00 -68.00    -0.81809    
-109.00 -67.00    -0.98581    
-109.00 -66.00     -1.0591    
-109.00 -65.00     -1.0291    
-109.00 -64.00    -0.91101    
-109.00 -63.00    -0.74106    
-109.00 -62.00    -0.56248    
-109.00 -61.00    -0.41499    
-109.00 -60.00    -0.32111    
-109.00 -59.00    -0.28307    
-109.00 -58.00    -0.28382    
-109.00 -57.00    -0.29524    
-109.00 -56.00    -0.28980    
-109.00 -55.00    -0.25207    
-109.00 -54.00    -0.18439    
-109.00 -53.00    -0.10818    
-109.00 -52.00    -0.56616E-01
-109.00 -51.00    -0.64330E-01
-109.00 -50.00    -0.15590    
-109.00 -49.00    -0.33746    
-109.00 -48.00    -0.59341    
-109.00 -47.00    -0.89056    
-109.00 -46.00     -1.1868    
-109.00 -45.00     -1.4421    
-109.00 -44.00     -1.6278    
-109.00 -43.00     -1.7325    
-109.00 -42.00     -1.7618    
-109.00 -41.00     -1.7325    
-109.00 -40.00     -1.6655    
-109.00 -39.00     -1.5777    
-109.00 -38.00     -1.4772    
-109.00 -37.00     -1.3636    
-109.00 -36.00     -1.2315    
-109.00 -35.00     -1.0774    
-109.00 -34.00    -0.90509    
-109.00 -33.00    -0.72960    
-109.00 -32.00    -0.57518    
-109.00 -31.00    -0.46978    
-109.00 -30.00    -0.43672    
-109.00 -29.00    -0.48640    
-109.00 -28.00    -0.61126    
-109.00 -27.00    -0.78552    
-109.00 -26.00    -0.97043    
-109.00 -25.00     -1.1234    
-109.00 -24.00     -1.2085    
-109.00 -23.00     -1.2051    
-109.00 -22.00     -1.1121    
-109.00 -21.00    -0.94650    
-109.00 -20.00    -0.73765    
-109.00 -19.00    -0.51806    
-109.00 -18.00    -0.31477    
-109.00 -17.00    -0.14343    
-109.00 -16.00    -0.69439E-02
-109.00 -15.00     0.10128    
-109.00 -14.00     0.19101    
-109.00 -13.00     0.26828    
-109.00 -12.00     0.33045    
-109.00 -11.00     0.36525    
-109.00 -10.00     0.35419    
-109.00  -9.00     0.27920    
-109.00  -8.00     0.13039    
-109.00  -7.00    -0.87892E-01
-109.00  -6.00    -0.35495    
-109.00  -5.00    -0.63647    
-109.00  -4.00    -0.89174    
-109.00  -3.00     -1.0831    
-109.00  -2.00     -1.1853    
-109.00  -1.00     -1.1913    
-109.00   0.00     -1.1140    
-109.00   1.00    -0.98199    
-109.00   2.00    -0.83146    
-109.00   3.00    -0.69679    
-109.00   4.00    -0.60181    
-109.00   5.00    -0.55466    
-109.00   6.00    -0.54751    
-109.00   7.00    -0.56071    
-109.00   8.00    -0.57021    
-109.00   9.00    -0.55561    
-109.00  10.00    -0.50659    
-109.00  11.00    -0.42583    
-109.00  12.00    -0.32778    
-109.00  13.00    -0.23375    
-109.00  14.00    -0.16521    
-109.00  15.00    -0.13720    
-109.00  16.00    -0.15392    
-109.00  17.00    -0.20771    
-109.00  18.00    -0.28146    
-109.00  19.00    -0.35367    
-109.00  20.00    -0.40430    
-109.00  21.00    -0.41986    
-109.00  22.00    -0.39614    
-109.00  23.00    -0.33805    
-109.00  24.00    -0.25700    
-109.00  25.00    -0.16679    
-109.00  26.00    -0.79579E-01
-109.00  27.00    -0.33027E-02
-109.00  28.00     0.58827E-01
-109.00  29.00     0.10675    
-109.00  30.00     0.14078    
-109.00  31.00     0.15896    
-109.00  32.00     0.15571    
-109.00  33.00     0.12271    
-109.00  34.00     0.51859E-01
-109.00  35.00    -0.60602E-01
-109.00  36.00    -0.21014    
-109.00  37.00    -0.38189    
-109.00  38.00    -0.55163    
-109.00  39.00    -0.69002    
-109.00  40.00    -0.76934    
-109.00  41.00    -0.77096    
-109.00  42.00    -0.69140    
-109.00  43.00    -0.54509    
-109.00  44.00    -0.36236    
-109.00  45.00    -0.18334    
-109.00  46.00    -0.48392E-01
