 -28.00  68.00    -0.18403    
 -28.00  69.00    -0.13824    
 -28.00  70.00    -0.98437E-01
 -28.00  71.00    -0.73824E-01
 -28.00  72.00    -0.72319E-01
 -28.00  73.00    -0.99261E-01
 -28.00  74.00    -0.15377    
 -28.00  75.00    -0.22921    
 -28.00  76.00    -0.31505    
 -28.00  77.00    -0.39713    
 -28.00  78.00    -0.46296    
 -28.00  79.00    -0.50360    
 -28.00  80.00    -0.51546    
 -28.00  81.00    -0.50211    
 -28.00  82.00    -0.47199    
 -28.00  83.00    -0.43868    
 -28.00  84.00    -0.41426    
 -28.00  85.00    -0.40978    
 -28.00  86.00    -0.43108    
 -28.00  87.00    -0.47890    
 -28.00  88.00    -0.54732    
 -28.00  89.00    -0.62802    
 -27.00 -89.00     0.10774E-01
 -27.00 -88.00     0.34402E-02
 -27.00 -87.00    -0.60794E-01
 -27.00 -86.00    -0.17061    
 -27.00 -85.00    -0.30162    
 -27.00 -84.00    -0.42532    
 -27.00 -83.00    -0.51662    
 -27.00 -82.00    -0.55909    
 -27.00 -81.00    -0.55205    
 -27.00 -80.00    -0.50307    
 -27.00 -79.00    -0.42768    
 -27.00 -78.00    -0.34001    
 -27.00 -77.00    -0.25064    
 -27.00 -76.00    -0.16266    
 -27.00 -75.00    -0.75632E-01
 -27.00 -74.00     0.12922E-01
 -27.00 -73.00     0.10322    
 -27.00 -72.00     0.18918    
 -27.00 -71.00     0.25953    
 -27.00 -70.00     0.30083    
 -27.00 -69.00     0.30205    
 -27.00 -68.00     0.25938    
 -27.00 -67.00     0.17927    
 -27.00 -66.00     0.77957E-01
 -27.00 -65.00    -0.22256E-01
 -27.00 -64.00    -0.99220E-01
 -27.00 -63.00    -0.13813    
 -27.00 -62.00    -0.13541    
 -27.00 -61.00    -0.99656E-01
 -27.00 -60.00    -0.49399E-01
 -27.00 -59.00    -0.62719E-02
 -27.00 -58.00     0.12119E-01
 -27.00 -57.00    -0.23296E-02
 -27.00 -56.00    -0.45316E-01
 -27.00 -55.00    -0.10237    
 -27.00 -54.00    -0.15408    
 -27.00 -53.00    -0.18324    
 -27.00 -52.00    -0.18155    
 -27.00 -51.00    -0.15285    
 -27.00 -50.00    -0.11201    
 -27.00 -49.00    -0.79932E-01
 -27.00 -48.00    -0.75751E-01
 -27.00 -47.00    -0.10971    
 -27.00 -46.00    -0.17828    
 -27.00 -45.00    -0.26384    
 -27.00 -44.00    -0.33928    
 -27.00 -43.00    -0.37616    
 -27.00 -42.00    -0.35345    
 -27.00 -41.00    -0.26479    
 -27.00 -40.00    -0.12145    
 -27.00 -39.00     0.49918E-01
 -27.00 -38.00     0.21421    
 -27.00 -37.00     0.33729    
 -27.00 -36.00     0.39515    
 -27.00 -35.00     0.38017    
 -27.00 -34.00     0.30259    
 -27.00 -33.00     0.18692    
 -27.00 -32.00     0.64577E-01
 -27.00 -31.00    -0.35038E-01
 -27.00 -30.00    -0.92326E-01
 -27.00 -29.00    -0.10193    
 -27.00 -28.00    -0.72790E-01
 -27.00 -27.00    -0.24137E-01
 -27.00 -26.00     0.21143E-01
 -27.00 -25.00     0.43563E-01
 -27.00 -24.00     0.32418E-01
 -27.00 -23.00    -0.11931E-01
 -27.00 -22.00    -0.79267E-01
 -27.00 -21.00    -0.15350    
 -27.00 -20.00    -0.21796    
 -27.00 -19.00    -0.26034    
 -27.00 -18.00    -0.27578    
 -27.00 -17.00    -0.26748    
 -27.00 -16.00    -0.24485    
 -27.00 -15.00    -0.22014    
 -27.00 -14.00    -0.20463    
 -27.00 -13.00    -0.20551    
 -27.00 -12.00    -0.22432    
 -27.00 -11.00    -0.25708    
 -27.00 -10.00    -0.29579    
 -27.00  -9.00    -0.33078    
 -27.00  -8.00    -0.35299    
 -27.00  -7.00    -0.35583    
 -27.00  -6.00    -0.33615    
 -27.00  -5.00    -0.29435    
 -27.00  -4.00    -0.23396    
 -27.00  -3.00    -0.16083    
 -27.00  -2.00    -0.82173E-01
 -27.00  -1.00    -0.57018E-02
 -27.00   0.00     0.61222E-01
 -27.00   1.00     0.11237    
 -27.00   2.00     0.14337    
 -27.00   3.00     0.15214    
 -27.00   4.00     0.13913    
 -27.00   5.00     0.10701    
 -27.00   6.00     0.59996E-01
 -27.00   7.00     0.27913E-02
 -27.00   8.00    -0.60427E-01
 -27.00   9.00    -0.12678    
 -27.00  10.00    -0.19488    
 -27.00  11.00    -0.26447    
 -27.00  12.00    -0.33549    
 -27.00  13.00    -0.40714    
 -27.00  14.00    -0.47712    
 -27.00  15.00    -0.54158    
 -27.00  16.00    -0.59576    
 -27.00  17.00    -0.63526    
 -27.00  18.00    -0.65746    
 -27.00  19.00    -0.66257    
 -27.00  20.00    -0.65393    
 -27.00  21.00    -0.63730    
 -27.00  22.00    -0.61933    
 -27.00  23.00    -0.60570    
 -27.00  24.00    -0.59946    
 -27.00  25.00    -0.60028    
 -27.00  26.00    -0.60471    
 -27.00  27.00    -0.60760    
 -27.00  28.00    -0.60408    
 -27.00  29.00    -0.59140    
 -27.00  30.00    -0.57009    
 -27.00  31.00    -0.54382    
 -27.00  32.00    -0.51815    
 -27.00  33.00    -0.49836    
 -27.00  34.00    -0.48722    
 -27.00  35.00    -0.48344    
 -27.00  36.00    -0.48132    
 -27.00  37.00    -0.47193    
 -27.00  38.00    -0.44540    
 -27.00  39.00    -0.39372    
 -27.00  40.00    -0.31325    
 -27.00  41.00    -0.20611    
 -27.00  42.00    -0.80128E-01
 -27.00  43.00     0.52668E-01
 -27.00  44.00     0.17854    
 -27.00  45.00     0.28476    
 -27.00  46.00     0.36204    
 -27.00  47.00     0.40551    
 -27.00  48.00     0.41511    
 -27.00  49.00     0.39433    
 -27.00  50.00     0.34905    
 -27.00  51.00     0.28579    
 -27.00  52.00     0.21062    
 -27.00  53.00     0.12871    
 -27.00  54.00     0.44292E-01
 -27.00  55.00    -0.39153E-01
 -27.00  56.00    -0.11822    
 -27.00  57.00    -0.18980    
 -27.00  58.00    -0.25110    
 -27.00  59.00    -0.29999    
 -27.00  60.00    -0.33553    
 -27.00  61.00    -0.35750    
 -27.00  62.00    -0.36665    
 -27.00  63.00    -0.36403    
 -27.00  64.00    -0.35059    
 -27.00  65.00    -0.32705    
 -27.00  66.00    -0.29412    
 -27.00  67.00    -0.25307    
 -27.00  68.00    -0.20653    
 -27.00  69.00    -0.15943    
 -27.00  70.00    -0.11816    
 -27.00  71.00    -0.89836E-01
 -27.00  72.00    -0.81066E-01
 -27.00  73.00    -0.97094E-01
 -27.00  74.00    -0.13822    
 -27.00  75.00    -0.19984    
 -27.00  76.00    -0.27406    
 -27.00  77.00    -0.34862    
 -27.00  78.00    -0.41217    
 -27.00  79.00    -0.45571    
 -27.00  80.00    -0.47434    
 -27.00  81.00    -0.46982    
 -27.00  82.00    -0.44865    
 -27.00  83.00    -0.42274    
 -27.00  84.00    -0.40363    
 -27.00  85.00    -0.40266    
 -27.00  86.00    -0.42589    
 -27.00  87.00    -0.47520    
 -27.00  88.00    -0.54491    
 -27.00  89.00    -0.62699    
 -26.00 -89.00     0.14519E-01
 -26.00 -88.00     0.11971E-01
 -26.00 -87.00    -0.47772E-01
 -26.00 -86.00    -0.15493    
 -26.00 -85.00    -0.28582    
 -26.00 -84.00    -0.41257    
 -26.00 -83.00    -0.50981    
 -26.00 -82.00    -0.55985    
 -26.00 -81.00    -0.56041    
 -26.00 -80.00    -0.51728    
 -26.00 -79.00    -0.44442    
 -26.00 -78.00    -0.35522    
 -26.00 -77.00    -0.26003    
 -26.00 -76.00    -0.16298    
 -26.00 -75.00    -0.65048E-01
 -26.00 -74.00     0.34306E-01
 -26.00 -73.00     0.13337    
 -26.00 -72.00     0.22458    
 -26.00 -71.00     0.29602    
 -26.00 -70.00     0.33444    
 -26.00 -69.00     0.32978    
 -26.00 -68.00     0.27967    
 -26.00 -67.00     0.19223    
 -26.00 -66.00     0.84898E-01
 -26.00 -65.00    -0.19089E-01
 -26.00 -64.00    -0.97694E-01
 -26.00 -63.00    -0.13653    
 -26.00 -62.00    -0.13297    
 -26.00 -61.00    -0.96433E-01
 -26.00 -60.00    -0.46112E-01
 -26.00 -59.00    -0.37854E-02
 -26.00 -58.00     0.13281E-01
 -26.00 -57.00    -0.24518E-02
 -26.00 -56.00    -0.46154E-01
 -26.00 -55.00    -0.10309    
 -26.00 -54.00    -0.15415    
 -26.00 -53.00    -0.18283    
 -26.00 -52.00    -0.18182    
 -26.00 -51.00    -0.15579    
 -26.00 -50.00    -0.11992    
 -26.00 -49.00    -0.94581E-01
 -26.00 -48.00    -0.97506E-01
 -26.00 -47.00    -0.13691    
 -26.00 -46.00    -0.20707    
 -26.00 -45.00    -0.28857    
 -26.00 -44.00    -0.35351    
 -26.00 -43.00    -0.37383    
 -26.00 -42.00    -0.33028    
 -26.00 -41.00    -0.21917    
 -26.00 -40.00    -0.54876E-01
 -26.00 -39.00     0.13310    
 -26.00 -38.00     0.30761    
 -26.00 -37.00     0.43360    
 -26.00 -36.00     0.48736    
 -26.00 -35.00     0.46247    
 -26.00 -34.00     0.37096    
 -26.00 -33.00     0.23932    
 -26.00 -32.00     0.10085    
 -26.00 -31.00    -0.13395E-01
 -26.00 -30.00    -0.82318E-01
 -26.00 -29.00    -0.99183E-01
 -26.00 -28.00    -0.71661E-01
 -26.00 -27.00    -0.17961E-01
 -26.00 -26.00     0.39458E-01
 -26.00 -25.00     0.80553E-01
 -26.00 -24.00     0.92769E-01
 -26.00 -23.00     0.73280E-01
 -26.00 -22.00     0.28147E-01
 -26.00 -21.00    -0.30908E-01
 -26.00 -20.00    -0.90774E-01
 -26.00 -19.00    -0.14083    
 -26.00 -18.00    -0.17537    
 -26.00 -17.00    -0.19402    
 -26.00 -16.00    -0.20058    
 -26.00 -15.00    -0.20083    
 -26.00 -14.00    -0.20032    
 -26.00 -13.00    -0.20282    
 -26.00 -12.00    -0.20975    
 -26.00 -11.00    -0.22048    
 -26.00 -10.00    -0.23310    
 -26.00  -9.00    -0.24516    
 -26.00  -8.00    -0.25409    
 -26.00  -7.00    -0.25721    
 -26.00  -6.00    -0.25162    
 -26.00  -5.00    -0.23423    
 -26.00  -4.00    -0.20221    
 -26.00  -3.00    -0.15399    
 -26.00  -2.00    -0.90311E-01
 -26.00  -1.00    -0.15160E-01
 -26.00   0.00     0.64089E-01
 -26.00   1.00     0.13750    
 -26.00   2.00     0.19436    
 -26.00   3.00     0.22539    
 -26.00   4.00     0.22493    
 -26.00   5.00     0.19219    
 -26.00   6.00     0.13130    
 -26.00   7.00     0.50047E-01
 -26.00   8.00    -0.42238E-01
 -26.00   9.00    -0.13705    
 -26.00  10.00    -0.22854    
 -26.00  11.00    -0.31418    
 -26.00  12.00    -0.39432    
 -26.00  13.00    -0.47069    
 -26.00  14.00    -0.54464    
 -26.00  15.00    -0.61576    
 -26.00  16.00    -0.68139    
 -26.00  17.00    -0.73730    
 -26.00  18.00    -0.77912    
 -26.00  19.00    -0.80403    
 -26.00  20.00    -0.81201    
 -26.00  21.00    -0.80606    
 -26.00  22.00    -0.79139    
 -26.00  23.00    -0.77366    
 -26.00  24.00    -0.75715    
 -26.00  25.00    -0.74331    
 -26.00  26.00    -0.73050    
 -26.00  27.00    -0.71488    
 -26.00  28.00    -0.69219    
 -26.00  29.00    -0.65991    
 -26.00  30.00    -0.61864    
 -26.00  31.00    -0.57251    
 -26.00  32.00    -0.52804    
 -26.00  33.00    -0.49192    
 -26.00  34.00    -0.46843    
 -26.00  35.00    -0.45732    
 -26.00  36.00    -0.45309    
 -26.00  37.00    -0.44585    
 -26.00  38.00    -0.42375    
 -26.00  39.00    -0.37632    
 -26.00  40.00    -0.29758    
 -26.00  41.00    -0.18814    
 -26.00  42.00    -0.55550E-01
 -26.00  43.00     0.87026E-01
 -26.00  44.00     0.22374    
 -26.00  45.00     0.33928    
 -26.00  46.00     0.42211    
 -26.00  47.00     0.46589    
 -26.00  48.00     0.47018    
 -26.00  49.00     0.43921    
 -26.00  50.00     0.38018    
 -26.00  51.00     0.30113    
 -26.00  52.00     0.20931    
 -26.00  53.00     0.11069    
 -26.00  54.00     0.97920E-02
 -26.00  55.00    -0.89765E-01
 -26.00  56.00    -0.18426    
 -26.00  57.00    -0.26976    
 -26.00  58.00    -0.34223    
 -26.00  59.00    -0.39811    
 -26.00  60.00    -0.43511    
 -26.00  61.00    -0.45250    
 -26.00  62.00    -0.45156    
 -26.00  63.00    -0.43496    
 -26.00  64.00    -0.40609    
 -26.00  65.00    -0.36821    
 -26.00  66.00    -0.32422    
 -26.00  67.00    -0.27629    
 -26.00  68.00    -0.22674    
 -26.00  69.00    -0.17886    
 -26.00  70.00    -0.13682    
 -26.00  71.00    -0.10543    
 -26.00  72.00    -0.90001E-01
 -26.00  73.00    -0.95503E-01
 -26.00  74.00    -0.12344    
 -26.00  75.00    -0.17130    
 -26.00  76.00    -0.23385    
 -26.00  77.00    -0.30080    
 -26.00  78.00    -0.36201    
 -26.00  79.00    -0.40837    
 -26.00  80.00    -0.43374    
 -26.00  81.00    -0.43802    
 -26.00  82.00    -0.42575    
 -26.00  83.00    -0.40717    
 -26.00  84.00    -0.39327    
 -26.00  85.00    -0.39570    
 -26.00  86.00    -0.42079    
 -26.00  87.00    -0.47153    
 -26.00  88.00    -0.54251    
 -26.00  89.00    -0.62596    
 -25.00 -89.00     0.18254E-01
 -25.00 -88.00     0.20522E-01
 -25.00 -87.00    -0.34645E-01
 -25.00 -86.00    -0.13901    
 -25.00 -85.00    -0.26957    
 -25.00 -84.00    -0.39913    
 -25.00 -83.00    -0.50195    
 -25.00 -82.00    -0.55926    
 -25.00 -81.00    -0.56708    
 -25.00 -80.00    -0.52947    
 -25.00 -79.00    -0.45891    
 -25.00 -78.00    -0.36807    
 -25.00 -77.00    -0.26710    
 -25.00 -76.00    -0.16117    
 -25.00 -75.00    -0.52620E-01
 -25.00 -74.00     0.57226E-01
 -25.00 -73.00     0.16482    
 -25.00 -72.00     0.26125    
 -25.00 -71.00     0.33398    
 -25.00 -70.00     0.36992    
 -25.00 -69.00     0.35995    
 -25.00 -68.00     0.30301    
 -25.00 -67.00     0.20872    
 -25.00 -66.00     0.95733E-01
 -25.00 -65.00    -0.11813E-01
 -25.00 -64.00    -0.91922E-01
 -25.00 -63.00    -0.13030    
 -25.00 -62.00    -0.12507    
 -25.00 -61.00    -0.86317E-01
 -25.00 -60.00    -0.33843E-01
 -25.00 -59.00     0.10238E-01
 -25.00 -58.00     0.28596E-01
 -25.00 -57.00     0.13715E-01
 -25.00 -56.00    -0.29639E-01
 -25.00 -55.00    -0.86922E-01
 -25.00 -54.00    -0.13948    
 -25.00 -53.00    -0.17134    
 -25.00 -52.00    -0.17561    
 -25.00 -51.00    -0.15694    
 -25.00 -50.00    -0.12987    
 -25.00 -49.00    -0.11345    
 -25.00 -48.00    -0.12363    
 -25.00 -47.00    -0.16669    
 -25.00 -46.00    -0.23542    
 -25.00 -45.00    -0.30969    
 -25.00 -44.00    -0.36211    
 -25.00 -43.00    -0.36614    
 -25.00 -42.00    -0.30496    
 -25.00 -41.00    -0.17752    
 -25.00 -40.00    -0.60133E-03
 -25.00 -39.00     0.19489    
 -25.00 -38.00     0.37146    
 -25.00 -37.00     0.49483    
 -25.00 -36.00     0.54277    
 -25.00 -35.00     0.51061    
 -25.00 -34.00     0.41181    
 -25.00 -33.00     0.27373    
 -25.00 -32.00     0.12995    
 -25.00 -31.00     0.11489E-01
 -25.00 -30.00    -0.60497E-01
 -25.00 -29.00    -0.78736E-01
 -25.00 -28.00    -0.49769E-01
 -25.00 -27.00     0.96874E-02
 -25.00 -26.00     0.78455E-01
 -25.00 -25.00     0.13682    
 -25.00 -24.00     0.17098    
 -25.00 -23.00     0.17498    
 -25.00 -22.00     0.15024    
 -25.00 -21.00     0.10324    
 -25.00 -20.00     0.42579E-01
 -25.00 -19.00    -0.23516E-01
 -25.00 -18.00    -0.88517E-01
 -25.00 -17.00    -0.14779    
 -25.00 -16.00    -0.19800    
 -25.00 -15.00    -0.23646    
 -25.00 -14.00    -0.26091    
 -25.00 -13.00    -0.26996    
 -25.00 -12.00    -0.26399    
 -25.00 -11.00    -0.24585    
 -25.00 -10.00    -0.22086    
 -25.00  -9.00    -0.19579    
 -25.00  -8.00    -0.17696    
 -25.00  -7.00    -0.16796    
 -25.00  -6.00    -0.16801    
 -25.00  -5.00    -0.17152    
 -25.00  -4.00    -0.16942    
 -25.00  -3.00    -0.15191    
 -25.00  -2.00    -0.11188    
 -25.00  -1.00    -0.47933E-01
 -25.00   0.00     0.34137E-01
 -25.00   1.00     0.12193    
 -25.00   2.00     0.19917    
 -25.00   3.00     0.24970    
 -25.00   4.00     0.26170    
 -25.00   5.00     0.23062    
 -25.00   6.00     0.16018    
 -25.00   7.00     0.60929E-01
 -25.00   8.00    -0.52954E-01
 -25.00   9.00    -0.16765    
 -25.00  10.00    -0.27314    
 -25.00  11.00    -0.36515    
 -25.00  12.00    -0.44495    
 -25.00  13.00    -0.51741    
 -25.00  14.00    -0.58807    
 -25.00  15.00    -0.66031    
 -25.00  16.00    -0.73370    
 -25.00  17.00    -0.80402    
 -25.00  18.00    -0.86474    
 -25.00  19.00    -0.90953    
 -25.00  20.00    -0.93457    
 -25.00  21.00    -0.93989    
 -25.00  22.00    -0.92930    
 -25.00  23.00    -0.90884    
 -25.00  24.00    -0.88451    
 -25.00  25.00    -0.86018    
 -25.00  26.00    -0.83635    
 -25.00  27.00    -0.81048    
 -25.00  28.00    -0.77854    
 -25.00  29.00    -0.73723    
 -25.00  30.00    -0.68604    
 -25.00  31.00    -0.62817    
 -25.00  32.00    -0.56990    
 -25.00  33.00    -0.51855    
 -25.00  34.00    -0.47970    
 -25.00  35.00    -0.45464    
 -25.00  36.00    -0.43908    
 -25.00  37.00    -0.42362    
 -25.00  38.00    -0.39610    
 -25.00  39.00    -0.34503    
 -25.00  40.00    -0.26324    
 -25.00  41.00    -0.15043    
 -25.00  42.00    -0.13911E-01
 -25.00  43.00     0.13259    
 -25.00  44.00     0.27204    
 -25.00  45.00     0.38776    
 -25.00  46.00     0.46711    
 -25.00  47.00     0.50333    
 -25.00  48.00     0.49635    
 -25.00  49.00     0.45150    
 -25.00  50.00     0.37731    
 -25.00  51.00     0.28310    
 -25.00  52.00     0.17685    
 -25.00  53.00     0.64743E-01
 -25.00  54.00    -0.48855E-01
 -25.00  55.00    -0.16062    
 -25.00  56.00    -0.26680    
 -25.00  57.00    -0.36278    
 -25.00  58.00    -0.44332    
 -25.00  59.00    -0.50341    
 -25.00  60.00    -0.53937    
 -25.00  61.00    -0.54995    
 -25.00  62.00    -0.53695    
 -25.00  63.00    -0.50476    
 -25.00  64.00    -0.45924    
 -25.00  65.00    -0.40627    
 -25.00  66.00    -0.35090    
 -25.00  67.00    -0.29624    
 -25.00  68.00    -0.24418    
 -25.00  69.00    -0.19622    
 -25.00  70.00    -0.15421    
 -25.00  71.00    -0.12049    
 -25.00  72.00    -0.99064E-01
 -25.00  73.00    -0.94486E-01
 -25.00  74.00    -0.10951    
 -25.00  75.00    -0.14374    
 -25.00  76.00    -0.19459    
 -25.00  77.00    -0.25392    
 -25.00  78.00    -0.31272    
 -25.00  79.00    -0.36185    
 -25.00  80.00    -0.39389    
 -25.00  81.00    -0.40690    
 -25.00  82.00    -0.40343    
 -25.00  83.00    -0.39204    
 -25.00  84.00    -0.38323    
 -25.00  85.00    -0.38893    
 -25.00  86.00    -0.41579    
 -25.00  87.00    -0.46790    
 -25.00  88.00    -0.54012    
 -25.00  89.00    -0.62494    
 -24.00 -89.00     0.21978E-01
 -24.00 -88.00     0.29087E-01
 -24.00 -87.00    -0.21422E-01
 -24.00 -86.00    -0.12286    
 -24.00 -85.00    -0.25289    
 -24.00 -84.00    -0.38500    
 -24.00 -83.00    -0.49306    
 -24.00 -82.00    -0.55733    
 -24.00 -81.00    -0.57204    
 -24.00 -80.00    -0.53964    
 -24.00 -79.00    -0.47120    
 -24.00 -78.00    -0.37867    
 -24.00 -77.00    -0.27207    
 -24.00 -76.00    -0.15761    
 -24.00 -75.00    -0.38895E-01
 -24.00 -74.00     0.80958E-01
 -24.00 -73.00     0.19667    
 -24.00 -72.00     0.29811    
 -24.00 -71.00     0.37216    
 -24.00 -70.00     0.40591    
 -24.00 -69.00     0.39108    
 -24.00 -68.00     0.32779    
 -24.00 -67.00     0.22708    
 -24.00 -66.00     0.10872    
 -24.00 -65.00    -0.22501E-02
 -24.00 -64.00    -0.83755E-01
 -24.00 -63.00    -0.12137    
 -24.00 -62.00    -0.11375    
 -24.00 -61.00    -0.71547E-01
 -24.00 -60.00    -0.15154E-01
 -24.00 -59.00     0.32767E-01
 -24.00 -58.00     0.54400E-01
 -24.00 -57.00     0.41725E-01
 -24.00 -56.00    -0.10939E-02
 -24.00 -55.00    -0.60081E-01
 -24.00 -54.00    -0.11713    
 -24.00 -53.00    -0.15651    
 -24.00 -52.00    -0.17112    
 -24.00 -51.00    -0.16468    
 -24.00 -50.00    -0.15016    
 -24.00 -49.00    -0.14456    
 -24.00 -48.00    -0.16170    
 -24.00 -47.00    -0.20621    
 -24.00 -46.00    -0.27008    
 -24.00 -45.00    -0.33369    
 -24.00 -44.00    -0.37144    
 -24.00 -43.00    -0.35941    
 -24.00 -42.00    -0.28381    
 -24.00 -41.00    -0.14618    
 -24.00 -40.00     0.35212E-01
 -24.00 -39.00     0.22946    
 -24.00 -38.00     0.40049    
 -24.00 -37.00     0.51646    
 -24.00 -36.00     0.55782    
 -24.00 -35.00     0.52202    
 -24.00 -34.00     0.42353    
 -24.00 -33.00     0.28937    
 -24.00 -32.00     0.15164    
 -24.00 -31.00     0.39530E-01
 -24.00 -30.00    -0.27272E-01
 -24.00 -29.00    -0.41857E-01
 -24.00 -28.00    -0.97590E-02
 -24.00 -27.00     0.54383E-01
 -24.00 -26.00     0.13175    
 -24.00 -25.00     0.20416    
 -24.00 -24.00     0.25752    
 -24.00 -23.00     0.28325    
 -24.00 -22.00     0.27795    
 -24.00 -21.00     0.24215    
 -24.00 -20.00     0.17888    
 -24.00 -19.00     0.93018E-01
 -24.00 -18.00    -0.87381E-02
 -24.00 -17.00    -0.11746    
 -24.00 -16.00    -0.22198    
 -24.00 -15.00    -0.30979    
 -24.00 -14.00    -0.36911    
 -24.00 -13.00    -0.39176    
 -24.00 -12.00    -0.37580    
 -24.00 -11.00    -0.32699    
 -24.00 -10.00    -0.25817    
 -24.00  -9.00    -0.18644    
 -24.00  -8.00    -0.12865    
 -24.00  -7.00    -0.96606E-01
 -24.00  -6.00    -0.93444E-01
 -24.00  -5.00    -0.11249    
 -24.00  -4.00    -0.13915    
 -24.00  -3.00    -0.15545    
 -24.00  -2.00    -0.14581    
 -24.00  -1.00    -0.10234    
 -24.00   0.00    -0.27945E-01
 -24.00   1.00     0.63893E-01
 -24.00   2.00     0.15254    
 -24.00   3.00     0.21590    
 -24.00   4.00     0.23656    
 -24.00   5.00     0.20653    
 -24.00   6.00     0.12905    
 -24.00   7.00     0.17183E-01
 -24.00   8.00    -0.11050    
 -24.00   9.00    -0.23545    
 -24.00  10.00    -0.34422    
 -24.00  11.00    -0.43143    
 -24.00  12.00    -0.49997    
 -24.00  13.00    -0.55838    
 -24.00  14.00    -0.61671    
 -24.00  15.00    -0.68225    
 -24.00  16.00    -0.75666    
 -24.00  17.00    -0.83542    
 -24.00  18.00    -0.90952    
 -24.00  19.00    -0.96884    
 -24.00  20.00     -1.0057    
 -24.00  21.00     -1.0175    
 -24.00  22.00     -1.0071    
 -24.00  23.00    -0.98174    
 -24.00  24.00    -0.94995    
 -24.00  25.00    -0.91867    
 -24.00  26.00    -0.89091    
 -24.00  27.00    -0.86524    
 -24.00  28.00    -0.83704    
 -24.00  29.00    -0.80104    
 -24.00  30.00    -0.75401    
 -24.00  31.00    -0.69652    
 -24.00  32.00    -0.63318    
 -24.00  33.00    -0.57096    
 -24.00  34.00    -0.51643    
 -24.00  35.00    -0.47283    
 -24.00  36.00    -0.43813    
 -24.00  37.00    -0.40498    
 -24.00  38.00    -0.36259    
 -24.00  39.00    -0.30013    
 -24.00  40.00    -0.21046    
 -24.00  41.00    -0.93099E-01
 -24.00  42.00     0.44799E-01
 -24.00  43.00     0.18946    
 -24.00  44.00     0.32364    
 -24.00  45.00     0.43050    
 -24.00  46.00     0.49751    
 -24.00  47.00     0.51860    
 -24.00  48.00     0.49481    
 -24.00  49.00     0.43294    
 -24.00  50.00     0.34285    
 -24.00  51.00     0.23476    
 -24.00  52.00     0.11692    
 -24.00  53.00    -0.48773E-02
 -24.00  54.00    -0.12701    
 -24.00  55.00    -0.24685    
 -24.00  56.00    -0.36090    
 -24.00  57.00    -0.46400    
 -24.00  58.00    -0.54974    
 -24.00  59.00    -0.61159    
 -24.00  60.00    -0.64443    
 -24.00  61.00    -0.64644    
 -24.00  62.00    -0.61997    
 -24.00  63.00    -0.57109    
 -24.00  64.00    -0.50821    
 -24.00  65.00    -0.43986    
 -24.00  66.00    -0.37323    
 -24.00  67.00    -0.31231    
 -24.00  68.00    -0.25848    
 -24.00  69.00    -0.21131    
 -24.00  70.00    -0.17023    
 -24.00  71.00    -0.13498    
 -24.00  72.00    -0.10824    
 -24.00  73.00    -0.94067E-01
 -24.00  74.00    -0.96485E-01
 -24.00  75.00    -0.11728    
 -24.00  76.00    -0.15649    
 -24.00  77.00    -0.20819    
 -24.00  78.00    -0.26457    
 -24.00  79.00    -0.31639    
 -24.00  80.00    -0.35501    
 -24.00  81.00    -0.37662    
 -24.00  82.00    -0.38181    
 -24.00  83.00    -0.37744    
 -24.00  84.00    -0.37355    
 -24.00  85.00    -0.38237    
 -24.00  86.00    -0.41089    
 -24.00  87.00    -0.46431    
 -24.00  88.00    -0.53776    
 -24.00  89.00    -0.62394    
 -23.00 -89.00     0.25689E-01
 -23.00 -88.00     0.37659E-01
 -23.00 -87.00    -0.81171E-02
 -23.00 -86.00    -0.10649    
 -23.00 -85.00    -0.23579    
 -23.00 -84.00    -0.37018    
 -23.00 -83.00    -0.48313    
 -23.00 -82.00    -0.55403    
 -23.00 -81.00    -0.57530    
 -23.00 -80.00    -0.54783    
 -23.00 -79.00    -0.48137    
 -23.00 -78.00    -0.38717    
 -23.00 -77.00    -0.27522    
 -23.00 -76.00    -0.15271    
 -23.00 -75.00    -0.24449E-01
 -23.00 -74.00     0.10474    
 -23.00 -73.00     0.22797    
 -23.00 -72.00     0.33402    
 -23.00 -71.00     0.40927    
 -23.00 -70.00     0.44095    
 -23.00 -69.00     0.42157    
 -23.00 -68.00     0.35233    
 -23.00 -67.00     0.24552    
 -23.00 -66.00     0.12202    
 -23.00 -65.00     0.76435E-02
 -23.00 -64.00    -0.75203E-01
 -23.00 -63.00    -0.11187    
 -23.00 -62.00    -0.10136    
 -23.00 -61.00    -0.54763E-01
 -23.00 -60.00     0.68775E-02
 -23.00 -59.00     0.60147E-01
 -23.00 -58.00     0.86340E-01
 -23.00 -57.00     0.76449E-01
 -23.00 -56.00     0.33579E-01
 -23.00 -55.00    -0.29165E-01
 -23.00 -54.00    -0.94199E-01
 -23.00 -53.00    -0.14573    
 -23.00 -52.00    -0.17573    
 -23.00 -51.00    -0.18613    
 -23.00 -50.00    -0.18746    
 -23.00 -49.00    -0.19401    
 -23.00 -48.00    -0.21732    
 -23.00 -47.00    -0.26059    
 -23.00 -46.00    -0.31587    
 -23.00 -45.00    -0.36520    
 -23.00 -44.00    -0.38597    
 -23.00 -43.00    -0.35792    
 -23.00 -42.00    -0.27078    
 -23.00 -41.00    -0.12850    
 -23.00 -40.00     0.50040E-01
 -23.00 -39.00     0.23535    
 -23.00 -38.00     0.39443    
 -23.00 -37.00     0.49938    
 -23.00 -36.00     0.53435    
 -23.00 -35.00     0.49922    
 -23.00 -34.00     0.40888    
 -23.00 -33.00     0.28867    
 -23.00 -32.00     0.16755    
 -23.00 -31.00     0.71009E-01
 -23.00 -30.00     0.15811E-01
 -23.00 -29.00     0.76810E-02
 -23.00 -28.00     0.42070E-01
 -23.00 -27.00     0.10718    
 -23.00 -26.00     0.18788    
 -23.00 -25.00     0.26906    
 -23.00 -24.00     0.33771    
 -23.00 -23.00     0.38349    
 -23.00 -22.00     0.39840    
 -23.00 -21.00     0.37647    
 -23.00 -20.00     0.31413    
 -23.00 -19.00     0.21152    
 -23.00 -18.00     0.74268E-01
 -23.00 -17.00    -0.85288E-01
 -23.00 -16.00    -0.24837    
 -23.00 -15.00    -0.39222    
 -23.00 -14.00    -0.49453    
 -23.00 -13.00    -0.53889    
 -23.00 -12.00    -0.51961    
 -23.00 -11.00    -0.44414    
 -23.00 -10.00    -0.33217    
 -23.00  -9.00    -0.21104    
 -23.00  -8.00    -0.10878    
 -23.00  -7.00    -0.46557E-01
 -23.00  -6.00    -0.32888E-01
 -23.00  -5.00    -0.61497E-01
 -23.00  -4.00    -0.11355    
 -23.00  -3.00    -0.16370    
 -23.00  -2.00    -0.18813    
 -23.00  -1.00    -0.17216    
 -23.00   0.00    -0.11489    
 -23.00   1.00    -0.29679E-01
 -23.00   2.00     0.59893E-01
 -23.00   3.00     0.12713    
 -23.00   4.00     0.15018    
 -23.00   5.00     0.11832    
 -23.00   6.00     0.34671E-01
 -23.00   7.00    -0.85383E-01
 -23.00   8.00    -0.21942    
 -23.00   9.00    -0.34500    
 -23.00  10.00    -0.44617    
 -23.00  11.00    -0.51743    
 -23.00  12.00    -0.56398    
 -23.00  13.00    -0.59851    
 -23.00  14.00    -0.63569    
 -23.00  15.00    -0.68654    
 -23.00  16.00    -0.75439    
 -23.00  17.00    -0.83395    
 -23.00  18.00    -0.91336    
 -23.00  19.00    -0.97857    
 -23.00  20.00     -1.0183    
 -23.00  21.00     -1.0277    
 -23.00  22.00     -1.0097    
 -23.00  23.00    -0.97386    
 -23.00  24.00    -0.93227    
 -23.00  25.00    -0.89572    
 -23.00  26.00    -0.87007    
 -23.00  27.00    -0.85479    
 -23.00  28.00    -0.84387    
 -23.00  29.00    -0.82869    
 -23.00  30.00    -0.80158    
 -23.00  31.00    -0.75878    
 -23.00  32.00    -0.70163    
 -23.00  33.00    -0.63567    
 -23.00  34.00    -0.56802    
 -23.00  35.00    -0.50411    
 -23.00  36.00    -0.44513    
 -23.00  37.00    -0.38715    
 -23.00  38.00    -0.32237    
 -23.00  39.00    -0.24216    
 -23.00  40.00    -0.14068    
 -23.00  41.00    -0.17979E-01
 -23.00  42.00     0.11880    
 -23.00  43.00     0.25627    
 -23.00  44.00     0.37785    
 -23.00  45.00     0.46767    
 -23.00  46.00     0.51451    
 -23.00  47.00     0.51394    
 -23.00  48.00     0.46883    
 -23.00  49.00     0.38777    
 -23.00  50.00     0.28187    
 -23.00  51.00     0.16190    
 -23.00  52.00     0.35833E-01
 -23.00  53.00    -0.91568E-01
 -23.00  54.00    -0.21797    
 -23.00  55.00    -0.34184    
 -23.00  56.00    -0.46018    
 -23.00  57.00    -0.56744    
 -23.00  58.00    -0.65599    
 -23.00  59.00    -0.71770    
 -23.00  60.00    -0.74595    
 -23.00  61.00    -0.73829    
 -23.00  62.00    -0.69755    
 -23.00  63.00    -0.63153    
 -23.00  64.00    -0.55120    
 -23.00  65.00    -0.46771    
 -23.00  66.00    -0.39035    
 -23.00  67.00    -0.32400    
 -23.00  68.00    -0.26937    
 -23.00  69.00    -0.22403    
 -23.00  70.00    -0.18484    
 -23.00  71.00    -0.14892    
 -23.00  72.00    -0.11756    
 -23.00  73.00    -0.94296E-01
 -23.00  74.00    -0.84453E-01
 -23.00  75.00    -0.92042E-01
 -23.00  76.00    -0.11971    
 -23.00  77.00    -0.16382    
 -23.00  78.00    -0.21779    
 -23.00  79.00    -0.27223    
 -23.00  80.00    -0.31731    
 -23.00  81.00    -0.34737    
 -23.00  82.00    -0.36100    
 -23.00  83.00    -0.36345    
 -23.00  84.00    -0.36429    
 -23.00  85.00    -0.37604    
 -23.00  86.00    -0.40611    
 -23.00  87.00    -0.46076    
 -23.00  88.00    -0.53542    
 -23.00  89.00    -0.62295    
 -22.00 -89.00     0.29384E-01
 -22.00 -88.00     0.46232E-01
 -22.00 -87.00     0.52591E-02
 -22.00 -86.00    -0.89909E-01
 -22.00 -85.00    -0.21829    
 -22.00 -84.00    -0.35470    
 -22.00 -83.00    -0.47219    
 -22.00 -82.00    -0.54938    
 -22.00 -81.00    -0.57686    
 -22.00 -80.00    -0.55407    
 -22.00 -79.00    -0.48950    
 -22.00 -78.00    -0.39374    
 -22.00 -77.00    -0.27684    
 -22.00 -76.00    -0.14690    
 -22.00 -75.00    -0.98777E-02
 -22.00 -74.00     0.12780    
 -22.00 -73.00     0.25776    
 -22.00 -72.00     0.36784    
 -22.00 -71.00     0.44398    
 -22.00 -70.00     0.47356    
 -22.00 -69.00     0.44981    
 -22.00 -68.00     0.37490    
 -22.00 -67.00     0.26223    
 -22.00 -66.00     0.13374    
 -22.00 -65.00     0.15917E-01
 -22.00 -64.00    -0.68286E-01
 -22.00 -63.00    -0.10397    
 -22.00 -62.00    -0.90299E-01
 -22.00 -61.00    -0.38738E-01
 -22.00 -60.00     0.28989E-01
 -22.00 -59.00     0.88511E-01
 -22.00 -58.00     0.11988    
 -22.00 -57.00     0.11268    
 -22.00 -56.00     0.68609E-01
 -22.00 -55.00    -0.31127E-03
 -22.00 -54.00    -0.76929E-01
 -22.00 -53.00    -0.14499    
 -22.00 -52.00    -0.19492    
 -22.00 -51.00    -0.22605    
 -22.00 -50.00    -0.24569    
 -22.00 -49.00    -0.26495    
 -22.00 -48.00    -0.29294    
 -22.00 -47.00    -0.33188    
 -22.00 -46.00    -0.37462    
 -22.00 -45.00    -0.40595    
 -22.00 -44.00    -0.40735    
 -22.00 -43.00    -0.36308    
 -22.00 -42.00    -0.26670    
 -22.00 -41.00    -0.12436    
 -22.00 -40.00     0.45346E-01
 -22.00 -39.00     0.21559    
 -22.00 -38.00     0.35791    
 -22.00 -37.00     0.44959    
 -22.00 -36.00     0.47927    
 -22.00 -35.00     0.44930    
 -22.00 -34.00     0.37436    
 -22.00 -33.00     0.27682    
 -22.00 -32.00     0.18080    
 -22.00 -31.00     0.10645    
 -22.00 -30.00     0.66309E-01
 -22.00 -29.00     0.64248E-01
 -22.00 -28.00     0.96862E-01
 -22.00 -27.00     0.15614    
 -22.00 -26.00     0.23214    
 -22.00 -25.00     0.31466    
 -22.00 -24.00     0.39350    
 -22.00 -23.00     0.45779    
 -22.00 -22.00     0.49549    
 -22.00 -21.00     0.49387    
 -22.00 -20.00     0.44169    
 -22.00 -19.00     0.33277    
 -22.00 -18.00     0.16979    
 -22.00 -17.00    -0.33227E-01
 -22.00 -16.00    -0.25119    
 -22.00 -15.00    -0.45166    
 -22.00 -14.00    -0.60163    
 -22.00 -13.00    -0.67554    
 -22.00 -12.00    -0.66244    
 -22.00 -11.00    -0.56979    
 -22.00 -10.00    -0.42246    
 -22.00  -9.00    -0.25687    
 -22.00  -8.00    -0.11161    
 -22.00  -7.00    -0.17365E-01
 -22.00  -6.00     0.11138E-01
 -22.00  -5.00    -0.21564E-01
 -22.00  -4.00    -0.93948E-01
 -22.00  -3.00    -0.17478    
 -22.00  -2.00    -0.23310    
 -22.00  -1.00    -0.24785    
 -22.00   0.00    -0.21415    
 -22.00   1.00    -0.14434    
 -22.00   2.00    -0.63598E-01
 -22.00   3.00    -0.16525E-02
 -22.00   4.00     0.16679E-01
 -22.00   5.00    -0.20917E-01
 -22.00   6.00    -0.11087    
 -22.00   7.00    -0.23550    
 -22.00   8.00    -0.36913    
 -22.00   9.00    -0.48641    
 -22.00  10.00    -0.57006    
 -22.00  11.00    -0.61552    
 -22.00  12.00    -0.63113    
 -22.00  13.00    -0.63408    
 -22.00  14.00    -0.64361    
 -22.00  15.00    -0.67398    
 -22.00  16.00    -0.72956    
 -22.00  17.00    -0.80353    
 -22.00  18.00    -0.88067    
 -22.00  19.00    -0.94283    
 -22.00  20.00    -0.97534    
 -22.00  21.00    -0.97193    
 -22.00  22.00    -0.93669    
 -22.00  23.00    -0.88243    
 -22.00  24.00    -0.82613    
 -22.00  25.00    -0.78335    
 -22.00  26.00    -0.76323    
 -22.00  27.00    -0.76603    
 -22.00  28.00    -0.78369    
 -22.00  29.00    -0.80307    
 -22.00  30.00    -0.81057    
 -22.00  31.00    -0.79649    
 -22.00  32.00    -0.75745    
 -22.00  33.00    -0.69648    
 -22.00  34.00    -0.62068    
 -22.00  35.00    -0.53774    
 -22.00  36.00    -0.45266    
 -22.00  37.00    -0.36601    
 -22.00  38.00    -0.27430    
 -22.00  39.00    -0.17239    
 -22.00  40.00    -0.56811E-01
 -22.00  41.00     0.71212E-01
 -22.00  42.00     0.20436    
 -22.00  43.00     0.32996    
 -22.00  44.00     0.43282    
 -22.00  45.00     0.49899    
 -22.00  46.00     0.51950    
 -22.00  47.00     0.49247    
 -22.00  48.00     0.42313    
 -22.00  49.00     0.32206    
 -22.00  50.00     0.20149    
 -22.00  51.00     0.72348E-01
 -22.00  52.00    -0.58211E-01
 -22.00  53.00    -0.18702    
 -22.00  54.00    -0.31357    
 -22.00  55.00    -0.43779    
 -22.00  56.00    -0.55738    
 -22.00  57.00    -0.66645    
 -22.00  58.00    -0.75610    
 -22.00  59.00    -0.81650    
 -22.00  60.00    -0.83942    
 -22.00  61.00    -0.82171    
 -22.00  62.00    -0.76665    
 -22.00  63.00    -0.68375    
 -22.00  64.00    -0.58648    
 -22.00  65.00    -0.48868    
 -22.00  66.00    -0.40161    
 -22.00  67.00    -0.33099    
 -22.00  68.00    -0.27677    
 -22.00  69.00    -0.23442    
 -22.00  70.00    -0.19815    
 -22.00  71.00    -0.16243    
 -22.00  72.00    -0.12711    
 -22.00  73.00    -0.95249E-01
 -22.00  74.00    -0.73500E-01
 -22.00  75.00    -0.68157E-01
 -22.00  76.00    -0.84416E-01
 -22.00  77.00    -0.12102    
 -22.00  78.00    -0.17259    
 -22.00  79.00    -0.22958    
 -22.00  80.00    -0.28099    
 -22.00  81.00    -0.31929    
 -22.00  82.00    -0.34114    
 -22.00  83.00    -0.35015    
 -22.00  84.00    -0.35550    
 -22.00  85.00    -0.36994    
 -22.00  86.00    -0.40144    
 -22.00  87.00    -0.45726    
 -22.00  88.00    -0.53310    
 -22.00  89.00    -0.62197    
 -21.00 -89.00     0.33062E-01
 -21.00 -88.00     0.54800E-01
 -21.00 -87.00     0.18694E-01
 -21.00 -86.00    -0.73133E-01
 -21.00 -85.00    -0.20039    
 -21.00 -84.00    -0.33856    
 -21.00 -83.00    -0.46025    
 -21.00 -82.00    -0.54339    
 -21.00 -81.00    -0.57674    
 -21.00 -80.00    -0.55840    
 -21.00 -79.00    -0.49570    
 -21.00 -78.00    -0.39857    
 -21.00 -77.00    -0.27721    
 -21.00 -76.00    -0.14060    
 -21.00 -75.00     0.42217E-02
 -21.00 -74.00     0.14935    
 -21.00 -73.00     0.28507    
 -21.00 -72.00     0.39842    
 -21.00 -71.00     0.47498    
 -21.00 -70.00     0.50229    
 -21.00 -69.00     0.47424    
 -21.00 -68.00     0.39385    
 -21.00 -67.00     0.27551    
 -21.00 -66.00     0.14213    
 -21.00 -65.00     0.20760E-01
 -21.00 -64.00    -0.64881E-01
 -21.00 -63.00    -0.99702E-01
 -21.00 -62.00    -0.82844E-01
 -21.00 -61.00    -0.26108E-01
 -21.00 -60.00     0.48065E-01
 -21.00 -59.00     0.11419    
 -21.00 -58.00     0.15077    
 -21.00 -57.00     0.14570    
 -21.00 -56.00     0.99005E-01
 -21.00 -55.00     0.21510E-01
 -21.00 -54.00    -0.69908E-01
 -21.00 -53.00    -0.15817    
 -21.00 -52.00    -0.23152    
 -21.00 -51.00    -0.28604    
 -21.00 -50.00    -0.32525    
 -21.00 -49.00    -0.35675    
 -21.00 -48.00    -0.38726    
 -21.00 -47.00    -0.41841    
 -21.00 -46.00    -0.44463    
 -21.00 -45.00    -0.45439    
 -21.00 -44.00    -0.43411    
 -21.00 -43.00    -0.37323    
 -21.00 -42.00    -0.26933    
 -21.00 -41.00    -0.13038    
 -21.00 -40.00     0.26065E-01
 -21.00 -39.00     0.17694    
 -21.00 -38.00     0.29943    
 -21.00 -37.00     0.37694    
 -21.00 -36.00     0.40305    
 -21.00 -35.00     0.38249    
 -21.00 -34.00     0.32891    
 -21.00 -33.00     0.26055    
 -21.00 -32.00     0.19522    
 -21.00 -31.00     0.14633    
 -21.00 -30.00     0.12116    
 -21.00 -29.00     0.12132    
 -21.00 -28.00     0.14484    
 -21.00 -27.00     0.18854    
 -21.00 -26.00     0.24932    
 -21.00 -25.00     0.32378    
 -21.00 -24.00     0.40644    
 -21.00 -23.00     0.48750    
 -21.00 -22.00     0.55172    
 -21.00 -21.00     0.57963    
 -21.00 -20.00     0.55144    
 -21.00 -19.00     0.45295    
 -21.00 -18.00     0.28168    
 -21.00 -17.00     0.50894E-01
 -21.00 -16.00    -0.21020    
 -21.00 -15.00    -0.46113    
 -21.00 -14.00    -0.65885    
 -21.00 -13.00    -0.76838    
 -21.00 -12.00    -0.77227    
 -21.00 -11.00    -0.67598    
 -21.00 -10.00    -0.50723    
 -21.00  -9.00    -0.30920    
 -21.00  -8.00    -0.12935    
 -21.00  -7.00    -0.68841E-02
 -21.00  -6.00     0.37179E-01
 -21.00  -5.00     0.46904E-02
 -21.00  -4.00    -0.81770E-01
 -21.00  -3.00    -0.18699    
 -21.00  -2.00    -0.27465    
 -21.00  -1.00    -0.31859    
 -21.00   0.00    -0.31040    
 -21.00   1.00    -0.26102    
 -21.00   2.00    -0.19614    
 -21.00   3.00    -0.14694    
 -21.00   4.00    -0.13958    
 -21.00   5.00    -0.18660    
 -21.00   6.00    -0.28320    
 -21.00   7.00    -0.40930    
 -21.00   8.00    -0.53654    
 -21.00   9.00    -0.63776    
 -21.00  10.00    -0.69564    
 -21.00  11.00    -0.70774    
 -21.00  12.00    -0.68638    
 -21.00  13.00    -0.65356    
 -21.00  14.00    -0.63287    
 -21.00  15.00    -0.64116    
 -21.00  16.00    -0.68287    
 -21.00  17.00    -0.74878    
 -21.00  18.00    -0.81956    
 -21.00  19.00    -0.87264    
 -21.00  20.00    -0.89010    
 -21.00  21.00    -0.86483    
 -21.00  22.00    -0.80296    
 -21.00  23.00    -0.72182    
 -21.00  24.00    -0.64432    
 -21.00  25.00    -0.59167    
 -21.00  26.00    -0.57692    
 -21.00  27.00    -0.60125    
 -21.00  28.00    -0.65421    
 -21.00  29.00    -0.71743    
 -21.00  30.00    -0.77038    
 -21.00  31.00    -0.79619    
 -21.00  32.00    -0.78567    
 -21.00  33.00    -0.73836    
 -21.00  34.00    -0.66076    
 -21.00  35.00    -0.56261    
 -21.00  36.00    -0.45299    
 -21.00  37.00    -0.33751    
 -21.00  38.00    -0.21785    
 -21.00  39.00    -0.93225E-01
 -21.00  40.00     0.36679E-01
 -21.00  41.00     0.16895    
 -21.00  42.00     0.29593    
 -21.00  43.00     0.40589    
 -21.00  44.00     0.48551    
 -21.00  45.00     0.52347    
 -21.00  46.00     0.51379    
 -21.00  47.00     0.45769    
 -21.00  48.00     0.36320    
 -21.00  49.00     0.24288    
 -21.00  50.00     0.10996    
 -21.00  51.00    -0.24933E-01
 -21.00  52.00    -0.15596    
 -21.00  53.00    -0.28206    
 -21.00  54.00    -0.40502    
 -21.00  55.00    -0.52647    
 -21.00  56.00    -0.64496    
 -21.00  57.00    -0.75426    
 -21.00  58.00    -0.84410    
 -21.00  59.00    -0.90282    
 -21.00  60.00    -0.92048    
 -21.00  61.00    -0.89313    
 -21.00  62.00    -0.82445    
 -21.00  63.00    -0.72564    
 -21.00  64.00    -0.61262    
 -21.00  65.00    -0.50187    
 -21.00  66.00    -0.40655    
 -21.00  67.00    -0.33316    
 -21.00  68.00    -0.28074    
 -21.00  69.00    -0.24265    
 -21.00  70.00    -0.21034    
 -21.00  71.00    -0.17569    
 -21.00  72.00    -0.13701    
 -21.00  73.00    -0.97028E-01
 -21.00  74.00    -0.63721E-01
 -21.00  75.00    -0.45733E-01
 -21.00  76.00    -0.50758E-01
 -21.00  77.00    -0.79973E-01
 -21.00  78.00    -0.12918    
 -21.00  79.00    -0.18865    
 -21.00  80.00    -0.24624    
 -21.00  81.00    -0.29254    
 -21.00  82.00    -0.32231    
 -21.00  83.00    -0.33760    
 -21.00  84.00    -0.34721    
 -21.00  85.00    -0.36411    
 -21.00  86.00    -0.39691    
 -21.00  87.00    -0.45379    
 -21.00  88.00    -0.53080    
 -21.00  89.00    -0.62100    
 -20.00 -89.00     0.36719E-01
 -20.00 -88.00     0.63358E-01
 -20.00 -87.00     0.32176E-01
 -20.00 -86.00    -0.56175E-01
 -20.00 -85.00    -0.18213    
 -20.00 -84.00    -0.32180    
 -20.00 -83.00    -0.44734    
 -20.00 -82.00    -0.53607    
 -20.00 -81.00    -0.57497    
 -20.00 -80.00    -0.56090    
 -20.00 -79.00    -0.50008    
 -20.00 -78.00    -0.40185    
 -20.00 -77.00    -0.27664    
 -20.00 -76.00    -0.13426    
 -20.00 -75.00     0.17265E-01
 -20.00 -74.00     0.16865    
 -20.00 -73.00     0.30900    
 -20.00 -72.00     0.42468    
 -20.00 -71.00     0.50104    
 -20.00 -70.00     0.52579    
 -20.00 -69.00     0.49341    
 -20.00 -68.00     0.40767    
 -20.00 -67.00     0.28383    
 -20.00 -66.00     0.14562    
 -20.00 -65.00     0.20625E-01
 -20.00 -64.00    -0.66587E-01
 -20.00 -63.00    -0.10078    
 -20.00 -62.00    -0.80927E-01
 -20.00 -61.00    -0.19131E-01
 -20.00 -60.00     0.61434E-01
 -20.00 -59.00     0.13405    
 -20.00 -58.00     0.17550    
 -20.00 -57.00     0.17176    
 -20.00 -56.00     0.12105    
 -20.00 -55.00     0.33007E-01
 -20.00 -54.00    -0.75591E-01
 -20.00 -53.00    -0.18647    
 -20.00 -52.00    -0.28524    
 -20.00 -51.00    -0.36423    
 -20.00 -50.00    -0.42282    
 -20.00 -49.00    -0.46492    
 -20.00 -48.00    -0.49510    
 -20.00 -47.00    -0.51481    
 -20.00 -46.00    -0.52076    
 -20.00 -45.00    -0.50583    
 -20.00 -44.00    -0.46198    
 -20.00 -43.00    -0.38419    
 -20.00 -42.00    -0.27403    
 -20.00 -41.00    -0.14092    
 -20.00 -40.00    -0.64935E-03
 -20.00 -39.00     0.12829    
 -20.00 -38.00     0.22954    
 -20.00 -37.00     0.29312    
 -20.00 -36.00     0.31769    
 -20.00 -35.00     0.30998    
 -20.00 -34.00     0.28193    
 -20.00 -33.00     0.24657    
 -20.00 -32.00     0.21423    
 -20.00 -31.00     0.19060    
 -20.00 -30.00     0.17698    
 -20.00 -29.00     0.17253    
 -20.00 -28.00     0.17717    
 -20.00 -27.00     0.19354    
 -20.00 -26.00     0.22689    
 -20.00 -25.00     0.28249    
 -20.00 -24.00     0.36149    
 -20.00 -23.00     0.45680    
 -20.00 -22.00     0.55114    
 -20.00 -21.00     0.61866    
 -20.00 -20.00     0.63047    
 -20.00 -19.00     0.56284    
 -20.00 -18.00     0.40580    
 -20.00 -17.00     0.16912    
 -20.00 -16.00    -0.11676    
 -20.00 -15.00    -0.40574    
 -20.00 -14.00    -0.64637    
 -20.00 -13.00    -0.79466    
 -20.00 -12.00    -0.82581    
 -20.00 -11.00    -0.74132    
 -20.00 -10.00    -0.56900    
 -20.00  -9.00    -0.35581    
 -20.00  -8.00    -0.15529    
 -20.00  -7.00    -0.13296E-01
 -20.00  -6.00     0.43678E-01
 -20.00  -5.00     0.14352E-01
 -20.00  -4.00    -0.79113E-01
 -20.00  -3.00    -0.19967    
 -20.00  -2.00    -0.30791    
 -20.00  -1.00    -0.37446    
 -20.00   0.00    -0.38853    
 -20.00   1.00    -0.35985    
 -20.00   2.00    -0.31385    
 -20.00   3.00    -0.28183    
 -20.00   4.00    -0.28964    
 -20.00   5.00    -0.34861    
 -20.00   6.00    -0.45178    
 -20.00   7.00    -0.57648    
 -20.00   8.00    -0.69223    
 -20.00   9.00    -0.77109    
 -20.00  10.00    -0.79701    
 -20.00  11.00    -0.77093    
 -20.00  12.00    -0.70997    
 -20.00  13.00    -0.64125    
 -20.00  14.00    -0.59241    
 -20.00  15.00    -0.58210    
 -20.00  16.00    -0.61379    
 -20.00  17.00    -0.67475    
 -20.00  18.00    -0.74064    
 -20.00  19.00    -0.78392    
 -20.00  20.00    -0.78332    
 -20.00  21.00    -0.73118    
 -20.00  22.00    -0.63626    
 -20.00  23.00    -0.52125    
 -20.00  24.00    -0.41585    
 -20.00  25.00    -0.34777    
 -20.00  26.00    -0.33456    
 -20.00  27.00    -0.37878    
 -20.00  28.00    -0.46774    
 -20.00  29.00    -0.57771    
 -20.00  30.00    -0.68088    
 -20.00  31.00    -0.75272    
 -20.00  32.00    -0.77754    
 -20.00  33.00    -0.75077    
 -20.00  34.00    -0.67772    
 -20.00  35.00    -0.56979    
 -20.00  36.00    -0.43992    
 -20.00  37.00    -0.29888    
 -20.00  38.00    -0.15370    
 -20.00  39.00    -0.83682E-02
 -20.00  40.00     0.13393    
 -20.00  41.00     0.26829    
 -20.00  42.00     0.38663    
 -20.00  43.00     0.47824    
 -20.00  44.00     0.53197    
 -20.00  45.00     0.53953    
 -20.00  46.00     0.49833    
 -20.00  47.00     0.41306    
 -20.00  48.00     0.29464    
 -20.00  49.00     0.15758    
 -20.00  50.00     0.15781E-01
 -20.00  51.00    -0.12077    
 -20.00  52.00    -0.24806    
 -20.00  53.00    -0.36756    
 -20.00  54.00    -0.48367    
 -20.00  55.00    -0.59994    
 -20.00  56.00    -0.71577    
 -20.00  57.00    -0.82455    
 -20.00  58.00    -0.91451    
 -20.00  59.00    -0.97200    
 -20.00  60.00    -0.98525    
 -20.00  61.00    -0.94943    
 -20.00  62.00    -0.86856    
 -20.00  63.00    -0.75546    
 -20.00  64.00    -0.62849    
 -20.00  65.00    -0.50668    
 -20.00  66.00    -0.40500    
 -20.00  67.00    -0.33059    
 -20.00  68.00    -0.28155    
 -20.00  69.00    -0.24903    
 -20.00  70.00    -0.22170    
 -20.00  71.00    -0.18894    
 -20.00  72.00    -0.14743    
 -20.00  73.00    -0.99753E-01
 -20.00  74.00    -0.55219E-01
 -20.00  75.00    -0.24874E-01
 -20.00  76.00    -0.18878E-01
 -20.00  77.00    -0.40848E-01
 -20.00  78.00    -0.87744E-01
 -20.00  79.00    -0.14964    
 -20.00  80.00    -0.21322    
 -20.00  81.00    -0.26725    
 -20.00  82.00    -0.30462    
 -20.00  83.00    -0.32588    
 -20.00  84.00    -0.33946    
 -20.00  85.00    -0.35855    
 -20.00  86.00    -0.39250    
 -20.00  87.00    -0.45038    
 -20.00  88.00    -0.52852    
 -20.00  89.00    -0.62005    
 -19.00 -89.00     0.40356E-01
 -19.00 -88.00     0.71898E-01
 -19.00 -87.00     0.45692E-01
 -19.00 -86.00    -0.39048E-01
 -19.00 -85.00    -0.16352    
 -19.00 -84.00    -0.30442    
 -19.00 -83.00    -0.43349    
 -19.00 -82.00    -0.52746    
 -19.00 -81.00    -0.57160    
 -19.00 -80.00    -0.56165    
 -19.00 -79.00    -0.50276    
 -19.00 -78.00    -0.40377    
 -19.00 -77.00    -0.27543    
 -19.00 -76.00    -0.12829    
 -19.00 -75.00     0.28695E-01
 -19.00 -74.00     0.18498    
 -19.00 -73.00     0.32867    
 -19.00 -72.00     0.44563    
 -19.00 -71.00     0.52103    
 -19.00 -70.00     0.54284    
 -19.00 -69.00     0.50604    
 -19.00 -68.00     0.41506    
 -19.00 -67.00     0.28589    
 -19.00 -66.00     0.14297    
 -19.00 -65.00     0.14322E-01
 -19.00 -64.00    -0.74611E-01
 -19.00 -63.00    -0.10848    
 -19.00 -62.00    -0.85979E-01
 -19.00 -61.00    -0.19486E-01
 -19.00 -60.00     0.67102E-01
 -19.00 -59.00     0.14579    
 -19.00 -58.00     0.19155    
 -19.00 -57.00     0.18834    
 -19.00 -56.00     0.13261    
 -19.00 -55.00     0.32836E-01
 -19.00 -54.00    -0.94095E-01
 -19.00 -53.00    -0.22842    
 -19.00 -52.00    -0.35276    
 -19.00 -51.00    -0.45544    
 -19.00 -50.00    -0.53159    
 -19.00 -49.00    -0.58153    
 -19.00 -48.00    -0.60794    
 -19.00 -47.00    -0.61263    
 -19.00 -46.00    -0.59514    
 -19.00 -45.00    -0.55324    
 -19.00 -44.00    -0.48475    
 -19.00 -43.00    -0.39026    
 -19.00 -42.00    -0.27506    
 -19.00 -41.00    -0.14956    
 -19.00 -40.00    -0.27185E-01
 -19.00 -39.00     0.78709E-01
 -19.00 -38.00     0.15859    
 -19.00 -37.00     0.20926    
 -19.00 -36.00     0.23420    
 -19.00 -35.00     0.24170    
 -19.00 -34.00     0.24126    
 -19.00 -33.00     0.23990    
 -19.00 -32.00     0.23976    
 -19.00 -31.00     0.23821    
 -19.00 -30.00     0.23026    
 -19.00 -29.00     0.21268    
 -19.00 -28.00     0.18767    
 -19.00 -27.00     0.16453    
 -19.00 -26.00     0.15805    
 -19.00 -25.00     0.18364    
 -19.00 -24.00     0.25072    
 -19.00 -23.00     0.35651    
 -19.00 -22.00     0.48299    
 -19.00 -21.00     0.59867    
 -19.00 -20.00     0.66546    
 -19.00 -19.00     0.64909    
 -19.00 -18.00     0.53015    
 -19.00 -17.00     0.31215    
 -19.00 -16.00     0.23716E-01
 -19.00 -15.00    -0.28640    
 -19.00 -14.00    -0.56061    
 -19.00 -13.00    -0.74707    
 -19.00 -12.00    -0.81342    
 -19.00 -11.00    -0.75555    
 -19.00 -10.00    -0.59862    
 -19.00  -9.00    -0.38995    
 -19.00  -8.00    -0.18585    
 -19.00  -7.00    -0.36184E-01
 -19.00  -6.00     0.28614E-01
 -19.00  -5.00     0.42574E-02
 -19.00  -4.00    -0.88687E-01
 -19.00  -3.00    -0.21345    
 -19.00  -2.00    -0.33003    
 -19.00  -1.00    -0.40821    
 -19.00   0.00    -0.43645    
 -19.00   1.00    -0.42396    
 -19.00   2.00    -0.39563    
 -19.00   3.00    -0.38177    
 -19.00   4.00    -0.40646    
