  63.00 -60.00     0.21313    
  63.00 -59.00     0.20788    
  63.00 -58.00     0.17803    
  63.00 -57.00     0.13227    
  63.00 -56.00     0.84471E-01
  63.00 -55.00     0.48860E-01
  63.00 -54.00     0.33235E-01
  63.00 -53.00     0.36230E-01
  63.00 -52.00     0.46250E-01
  63.00 -51.00     0.44802E-01
  63.00 -50.00     0.12944E-01
  63.00 -49.00    -0.62427E-01
  63.00 -48.00    -0.18247    
  63.00 -47.00    -0.33435    
  63.00 -46.00    -0.49335    
  63.00 -45.00    -0.62893    
  63.00 -44.00    -0.71289    
  63.00 -43.00    -0.72760    
  63.00 -42.00    -0.67136    
  63.00 -41.00    -0.55949    
  63.00 -40.00    -0.42057    
  63.00 -39.00    -0.28893    
  63.00 -38.00    -0.19542    
  63.00 -37.00    -0.15934    
  63.00 -36.00    -0.18364    
  63.00 -35.00    -0.25471    
  63.00 -34.00    -0.34686    
  63.00 -33.00    -0.42970    
  63.00 -32.00    -0.47655    
  63.00 -31.00    -0.47111    
  63.00 -30.00    -0.41097    
  63.00 -29.00    -0.30684    
  63.00 -28.00    -0.17856    
  63.00 -27.00    -0.49002E-01
  63.00 -26.00     0.61885E-01
  63.00 -25.00     0.14127    
  63.00 -24.00     0.18488    
  63.00 -23.00     0.19569    
  63.00 -22.00     0.18086    
  63.00 -21.00     0.14827    
  63.00 -20.00     0.10396    
  63.00 -19.00     0.51387E-01
  63.00 -18.00    -0.76598E-02
  63.00 -17.00    -0.71091E-01
  63.00 -16.00    -0.13472    
  63.00 -15.00    -0.19166    
  63.00 -14.00    -0.23342    
  63.00 -13.00    -0.25255    
  63.00 -12.00    -0.24577    
  63.00 -11.00    -0.21640    
  63.00 -10.00    -0.17490    
  63.00  -9.00    -0.13683    
  63.00  -8.00    -0.11869    
  63.00  -7.00    -0.13272    
  63.00  -6.00    -0.18227    
  63.00  -5.00    -0.25942    
  63.00  -4.00    -0.34592    
  63.00  -3.00    -0.41733    
  63.00  -2.00    -0.44958    
  63.00  -1.00    -0.42589    
  63.00   0.00    -0.34210    
  63.00   1.00    -0.20879    
  63.00   2.00    -0.49154E-01
  63.00   3.00     0.10661    
  63.00   4.00     0.22916    
  63.00   5.00     0.29771    
  63.00   6.00     0.30561    
  63.00   7.00     0.26196    
  63.00   8.00     0.18904    
  63.00   9.00     0.11612    
  63.00  10.00     0.71460E-01
  63.00  11.00     0.74680E-01
  63.00  12.00     0.13160    
  63.00  13.00     0.23279    
  63.00  14.00     0.35623    
  63.00  15.00     0.47303    
  63.00  16.00     0.55483    
  63.00  17.00     0.58066    
  63.00  18.00     0.54172    
  63.00  19.00     0.44295    
  63.00  20.00     0.30122    
  63.00  21.00     0.14101    
  63.00  22.00    -0.11412E-01
  63.00  23.00    -0.13341    
  63.00  24.00    -0.21012    
  63.00  25.00    -0.23620    
  63.00  26.00    -0.21538    
  63.00  27.00    -0.15805    
  63.00  28.00    -0.77890E-01
  63.00  29.00     0.11516E-01
  63.00  30.00     0.99256E-01
  63.00  31.00     0.17842    
  63.00  32.00     0.24610    
  63.00  33.00     0.30227    
  63.00  34.00     0.34828    
  63.00  35.00     0.38527    
  63.00  36.00     0.41317    
  63.00  37.00     0.43046    
  63.00  38.00     0.43470    
  63.00  39.00     0.42358    
  63.00  40.00     0.39615    
  63.00  41.00     0.35376    
  63.00  42.00     0.30034    
  63.00  43.00     0.24207    
  63.00  44.00     0.18616    
  63.00  45.00     0.13925    
  63.00  46.00     0.10615    
  63.00  47.00     0.88228E-01
  63.00  48.00     0.83424E-01
  63.00  49.00     0.86847E-01
  63.00  50.00     0.91982E-01
  63.00  51.00     0.92719E-01
  63.00  52.00     0.84999E-01
  63.00  53.00     0.67951E-01
  63.00  54.00     0.44278E-01
  63.00  55.00     0.19161E-01
  63.00  56.00    -0.12738E-02
  63.00  57.00    -0.11655E-01
  63.00  58.00    -0.89980E-02
  63.00  59.00     0.63120E-02
  63.00  60.00     0.31648E-01
  63.00  61.00     0.62634E-01
  63.00  62.00     0.95272E-01
  63.00  63.00     0.12767    
  63.00  64.00     0.15998    
  63.00  65.00     0.19447    
  63.00  66.00     0.23381    
  63.00  67.00     0.27879    
  63.00  68.00     0.32709    
  63.00  69.00     0.37182    
  63.00  70.00     0.40340    
  63.00  71.00     0.41208    
  63.00  72.00     0.39045    
  63.00  73.00     0.33752    
  63.00  74.00     0.26088    
  63.00  75.00     0.17527    
  63.00  76.00     0.10077    
  63.00  77.00     0.56773E-01
  63.00  78.00     0.57664E-01
  63.00  79.00     0.10694    
  63.00  80.00     0.19604    
  63.00  81.00     0.30553    
  63.00  82.00     0.40754    
  63.00  83.00     0.47660    
  63.00  84.00     0.49106    
  63.00  85.00     0.44212    
  63.00  86.00     0.33689    
  63.00  87.00     0.19323    
  63.00  88.00     0.38937E-01
  63.00  89.00    -0.97918E-01
  64.00 -89.00     0.10758    
  64.00 -88.00     0.65642E-01
  64.00 -87.00     0.68635E-01
  64.00 -86.00     0.11889    
  64.00 -85.00     0.20450    
  64.00 -84.00     0.30590    
  64.00 -83.00     0.39851    
  64.00 -82.00     0.46212    
  64.00 -81.00     0.48356    
  64.00 -80.00     0.46218    
  64.00 -79.00     0.40882    
  64.00 -78.00     0.34254    
  64.00 -77.00     0.28443    
  64.00 -76.00     0.25242    
  64.00 -75.00     0.25523    
  64.00 -74.00     0.28957    
  64.00 -73.00     0.34337    
  64.00 -72.00     0.39785    
  64.00 -71.00     0.43466    
  64.00 -70.00     0.44027    
  64.00 -69.00     0.41191    
  64.00 -68.00     0.35617    
  64.00 -67.00     0.28812    
  64.00 -66.00     0.22600    
  64.00 -65.00     0.18508    
  64.00 -64.00     0.17308    
  64.00 -63.00     0.18771    
  64.00 -62.00     0.21788    
  64.00 -61.00     0.24695    
  64.00 -60.00     0.25964    
  64.00 -59.00     0.24623    
  64.00 -58.00     0.20649    
  64.00 -57.00     0.14976    
  64.00 -56.00     0.91261E-01
  64.00 -55.00     0.47182E-01
  64.00 -54.00     0.27665E-01
  64.00 -53.00     0.33365E-01
  64.00 -52.00     0.53597E-01
  64.00 -51.00     0.69335E-01
  64.00 -50.00     0.59298E-01
  64.00 -49.00     0.66309E-02
  64.00 -48.00    -0.94428E-01
  64.00 -47.00    -0.23540    
  64.00 -46.00    -0.39478    
  64.00 -45.00    -0.54317    
  64.00 -44.00    -0.65133    
  64.00 -43.00    -0.69846    
  64.00 -42.00    -0.67830    
  64.00 -41.00    -0.60118    
  64.00 -40.00    -0.49119    
  64.00 -39.00    -0.37948    
  64.00 -38.00    -0.29532    
  64.00 -37.00    -0.25800    
  64.00 -36.00    -0.27159    
  64.00 -35.00    -0.32427    
  64.00 -34.00    -0.39228    
  64.00 -33.00    -0.44712    
  64.00 -32.00    -0.46385    
  64.00 -31.00    -0.42800    
  64.00 -30.00    -0.33914    
  64.00 -29.00    -0.21025    
  64.00 -28.00    -0.63459E-01
  64.00 -27.00     0.76421E-01
  64.00 -26.00     0.18833    
  64.00 -25.00     0.25958    
  64.00 -24.00     0.28747    
  64.00 -23.00     0.27779    
  64.00 -22.00     0.24117    
  64.00 -21.00     0.18884    
  64.00 -20.00     0.12934    
  64.00 -19.00     0.67183E-01
  64.00 -18.00     0.36519E-02
  64.00 -17.00    -0.60950E-01
  64.00 -16.00    -0.12486    
  64.00 -15.00    -0.18349    
  64.00 -14.00    -0.22982    
  64.00 -13.00    -0.25672    
  64.00 -12.00    -0.26010    
  64.00 -11.00    -0.24172    
  64.00 -10.00    -0.21026    
  64.00  -9.00    -0.17990    
  64.00  -8.00    -0.16635    
  64.00  -7.00    -0.18167    
  64.00  -6.00    -0.22933    
  64.00  -5.00    -0.30143    
  64.00  -4.00    -0.37929    
  64.00  -3.00    -0.43762    
  64.00  -2.00    -0.45136    
  64.00  -1.00    -0.40326    
  64.00   0.00    -0.28993    
  64.00   1.00    -0.12435    
  64.00   2.00     0.66110E-01
  64.00   3.00     0.24597    
  64.00   4.00     0.38048    
  64.00   5.00     0.44476    
  64.00   6.00     0.43051    
  64.00   7.00     0.34842    
  64.00   8.00     0.22562    
  64.00   9.00     0.98644E-01
  64.00  10.00     0.40045E-02
  64.00  11.00    -0.31153E-01
  64.00  12.00     0.42152E-02
  64.00  13.00     0.10266    
  64.00  14.00     0.24069    
  64.00  15.00     0.38521    
  64.00  16.00     0.50207    
  64.00  17.00     0.56451    
  64.00  18.00     0.55911    
  64.00  19.00     0.48814    
  64.00  20.00     0.36784    
  64.00  21.00     0.22354    
  64.00  22.00     0.83022E-01
  64.00  23.00    -0.29826E-01
  64.00  24.00    -0.99682E-01
  64.00  25.00    -0.12173    
  64.00  26.00    -0.10082    
  64.00  27.00    -0.48430E-01
  64.00  28.00     0.21330E-01
  64.00  29.00     0.95550E-01
  64.00  30.00     0.16514    
  64.00  31.00     0.22577    
  64.00  32.00     0.27717    
  64.00  33.00     0.32135    
  64.00  34.00     0.36049    
  64.00  35.00     0.39530    
  64.00  36.00     0.42427    
  64.00  37.00     0.44406    
  64.00  38.00     0.45077    
  64.00  39.00     0.44158    
  64.00  40.00     0.41621    
  64.00  41.00     0.37766    
  64.00  42.00     0.33199    
  64.00  43.00     0.28713    
  64.00  44.00     0.25098    
  64.00  45.00     0.22941    
  64.00  46.00     0.22488    
  64.00  47.00     0.23532    
  64.00  48.00     0.25479    
  64.00  49.00     0.27503    
  64.00  50.00     0.28733    
  64.00  51.00     0.28499    
  64.00  52.00     0.26502    
  64.00  53.00     0.22897    
  64.00  54.00     0.18265    
  64.00  55.00     0.13436    
  64.00  56.00     0.92861E-01
  64.00  57.00     0.65148E-01
  64.00  58.00     0.54740E-01
  64.00  59.00     0.60777E-01
  64.00  60.00     0.79462E-01
  64.00  61.00     0.10495    
  64.00  62.00     0.13184    
  64.00  63.00     0.15719    
  64.00  64.00     0.18067    
  64.00  65.00     0.20471    
  64.00  66.00     0.23273    
  64.00  67.00     0.26669    
  64.00  68.00     0.30572    
  64.00  69.00     0.34427    
  64.00  70.00     0.37370    
  64.00  71.00     0.38465    
  64.00  72.00     0.36929    
  64.00  73.00     0.32564    
  64.00  74.00     0.25958    
  64.00  75.00     0.18403    
  64.00  76.00     0.11726    
  64.00  77.00     0.77543E-01
  64.00  78.00     0.78797E-01
  64.00  79.00     0.12504    
  64.00  80.00     0.20879    
  64.00  81.00     0.31213    
  64.00  82.00     0.40865    
  64.00  83.00     0.47387    
  64.00  84.00     0.48659    
  64.00  85.00     0.43789    
  64.00  86.00     0.33414    
  64.00  87.00     0.19240    
  64.00  88.00     0.39185E-01
  64.00  89.00    -0.97371E-01
  65.00 -89.00     0.10759    
  65.00 -88.00     0.65184E-01
  65.00 -87.00     0.66776E-01
  65.00 -86.00     0.11472    
  65.00 -85.00     0.19716    
  65.00 -84.00     0.29502    
  65.00 -83.00     0.38380    
  65.00 -82.00     0.44507    
  65.00 -81.00     0.46507    
  65.00 -80.00     0.44353    
  65.00 -79.00     0.39106    
  65.00 -78.00     0.32644    
  65.00 -77.00     0.27038    
  65.00 -76.00     0.24080    
  65.00 -75.00     0.24665    
  65.00 -74.00     0.28495    
  65.00 -73.00     0.34404    
  65.00 -72.00     0.40531    
  65.00 -71.00     0.45031    
  65.00 -70.00     0.46477    
  65.00 -69.00     0.44506    
  65.00 -68.00     0.39676    
  65.00 -67.00     0.33416    
  65.00 -66.00     0.27506    
  65.00 -65.00     0.23486    
  65.00 -64.00     0.22172    
  65.00 -63.00     0.23392    
  65.00 -62.00     0.26084    
  65.00 -61.00     0.28587    
  65.00 -60.00     0.29346    
  65.00 -59.00     0.27346    
  65.00 -58.00     0.22542    
  65.00 -57.00     0.15910    
  65.00 -56.00     0.91016E-01
  65.00 -55.00     0.39304E-01
  65.00 -54.00     0.16659E-01
  65.00 -53.00     0.25987E-01
  65.00 -52.00     0.57778E-01
  65.00 -51.00     0.92662E-01
  65.00 -50.00     0.10700    
  65.00 -49.00     0.80045E-01
  65.00 -48.00     0.10878E-02
  65.00 -47.00    -0.12618    
  65.00 -46.00    -0.28386    
  65.00 -45.00    -0.44402    
  65.00 -44.00    -0.57645    
  65.00 -43.00    -0.65701    
  65.00 -42.00    -0.67453    
  65.00 -41.00    -0.63389    
  65.00 -40.00    -0.55425    
  65.00 -39.00    -0.46323    
  65.00 -38.00    -0.38843    
  65.00 -37.00    -0.34919    
  65.00 -36.00    -0.35102    
  65.00 -35.00    -0.38430    
  65.00 -34.00    -0.42762    
  65.00 -33.00    -0.45467    
  65.00 -32.00    -0.44246    
  65.00 -31.00    -0.37836    
  65.00 -30.00    -0.26387    
  65.00 -29.00    -0.11405    
  65.00 -28.00     0.46837E-01
  65.00 -27.00     0.19221    
  65.00 -26.00     0.30011    
  65.00 -25.00     0.35830    
  65.00 -24.00     0.36609    
  65.00 -23.00     0.33261    
  65.00 -22.00     0.27258    
  65.00 -21.00     0.20118    
  65.00 -20.00     0.12981    
  65.00 -19.00     0.64043E-01
  65.00 -18.00     0.41481E-02
  65.00 -17.00    -0.52355E-01
  65.00 -16.00    -0.10751    
  65.00 -15.00    -0.16049    
  65.00 -14.00    -0.20708    
  65.00 -13.00    -0.24120    
  65.00 -12.00    -0.25790    
  65.00 -11.00    -0.25648    
  65.00 -10.00    -0.24222    
  65.00  -9.00    -0.22581    
  65.00  -8.00    -0.22015    
  65.00  -7.00    -0.23558    
  65.00  -6.00    -0.27508    
  65.00  -5.00    -0.33128    
  65.00  -4.00    -0.38664    
  65.00  -3.00    -0.41740    
  65.00  -2.00    -0.40018    
  65.00  -1.00    -0.31970    
  65.00   0.00    -0.17493    
  65.00   1.00     0.18188E-01
  65.00   2.00     0.22891    
  65.00   3.00     0.41826    
  65.00   4.00     0.54862    
  65.00   5.00     0.59367    
  65.00   6.00     0.54572    
  65.00   7.00     0.41858    
  65.00   8.00     0.24461    
  65.00   9.00     0.66955E-01
  65.00  10.00    -0.71110E-01
  65.00  11.00    -0.13691    
  65.00  12.00    -0.11620    
  65.00  13.00    -0.16133E-01
  65.00  14.00     0.13734    
  65.00  15.00     0.30665    
  65.00  16.00     0.45246    
  65.00  17.00     0.54325    
  65.00  18.00     0.56241    
  65.00  19.00     0.51093    
  65.00  20.00     0.40558    
  65.00  21.00     0.27323    
  65.00  22.00     0.14340    
  65.00  23.00     0.40974E-01
  65.00  24.00    -0.18906E-01
  65.00  25.00    -0.32765E-01
  65.00  26.00    -0.74303E-02
  65.00  27.00     0.43761E-01
  65.00  28.00     0.10576    
  65.00  29.00     0.16615    
  65.00  30.00     0.21773    
  65.00  31.00     0.25912    
  65.00  32.00     0.29322    
  65.00  33.00     0.32464    
  65.00  34.00     0.35698    
  65.00  35.00     0.39088    
  65.00  36.00     0.42356    
  65.00  37.00     0.44977    
  65.00  38.00     0.46379    
  65.00  39.00     0.46171    
  65.00  40.00     0.44327    
  65.00  41.00     0.41249    
  65.00  42.00     0.37698    
  65.00  43.00     0.34612    
  65.00  44.00     0.32845    
  65.00  45.00     0.32929    
  65.00  46.00     0.34919    
  65.00  47.00     0.38332    
  65.00  48.00     0.42256    
  65.00  49.00     0.45589    
  65.00  50.00     0.47290    
  65.00  51.00     0.46654    
  65.00  52.00     0.43485    
  65.00  53.00     0.38158    
  65.00  54.00     0.31521    
  65.00  55.00     0.24658    
  65.00  56.00     0.18664    
  65.00  57.00     0.14353    
  65.00  58.00     0.12108    
  65.00  59.00     0.11789    
  65.00  60.00     0.12913    
  65.00  61.00     0.14777    
  65.00  62.00     0.16736    
  65.00  63.00     0.18426    
  65.00  64.00     0.19797    
  65.00  65.00     0.21122    
  65.00  66.00     0.22822    
  65.00  67.00     0.25203    
  65.00  68.00     0.28302    
  65.00  69.00     0.31674    
  65.00  70.00     0.34529    
  65.00  71.00     0.35952    
  65.00  72.00     0.35109    
  65.00  73.00     0.31699    
  65.00  74.00     0.26142    
  65.00  75.00     0.19557    
  65.00  76.00     0.13603    
  65.00  77.00     0.10003    
  65.00  78.00     0.10109    
  65.00  79.00     0.14381    
  65.00  80.00     0.22182    
  65.00  81.00     0.31872    
  65.00  82.00     0.40955    
  65.00  83.00     0.47080    
  65.00  84.00     0.48176    
  65.00  85.00     0.43336    
  65.00  86.00     0.33115    
  65.00  87.00     0.19141    
  65.00  88.00     0.39349E-01
  65.00  89.00    -0.96855E-01
  66.00 -89.00     0.10763    
  66.00 -88.00     0.64748E-01
  66.00 -87.00     0.64899E-01
  66.00 -86.00     0.11042    
  66.00 -85.00     0.18956    
  66.00 -84.00     0.28372    
  66.00 -83.00     0.36854    
  66.00 -82.00     0.42726    
  66.00 -81.00     0.44565    
  66.00 -80.00     0.42379    
  66.00 -79.00     0.37202    
  66.00 -78.00     0.30879    
  66.00 -77.00     0.25446    
  66.00 -76.00     0.22690    
  66.00 -75.00     0.23523    
  66.00 -74.00     0.27682    
  66.00 -73.00     0.34039    
  66.00 -72.00     0.40751    
  66.00 -71.00     0.45959    
  66.00 -70.00     0.48166    
  66.00 -69.00     0.46915    
  66.00 -68.00     0.42673    
  66.00 -67.00     0.36796    
  66.00 -66.00     0.31030    
  66.00 -65.00     0.26957    
  66.00 -64.00     0.25441    
  66.00 -63.00     0.26393    
  66.00 -62.00     0.28802    
  66.00 -61.00     0.31014    
  66.00 -60.00     0.31431    
  66.00 -59.00     0.28974    
  66.00 -58.00     0.23544    
  66.00 -57.00     0.16130    
  66.00 -56.00     0.84915E-01
  66.00 -55.00     0.26247E-01
  66.00 -54.00     0.61159E-03
  66.00 -53.00     0.13318E-01
  66.00 -52.00     0.56296E-01
  66.00 -51.00     0.11012    
  66.00 -50.00     0.14898    
  66.00 -49.00     0.14833    
  66.00 -48.00     0.92527E-01
  66.00 -47.00    -0.19661E-01
  66.00 -46.00    -0.17408    
  66.00 -45.00    -0.34442    
  66.00 -44.00    -0.49952    
  66.00 -43.00    -0.61188    
  66.00 -42.00    -0.66530    
  66.00 -41.00    -0.65906    
  66.00 -40.00    -0.60737    
  66.00 -39.00    -0.53436    
  66.00 -38.00    -0.46621    
  66.00 -37.00    -0.42276    
  66.00 -36.00    -0.41143    
  66.00 -35.00    -0.42522    
  66.00 -34.00    -0.44540    
  66.00 -33.00    -0.44792    
  66.00 -32.00    -0.41154    
  66.00 -31.00    -0.32505    
  66.00 -30.00    -0.19128    
  66.00 -29.00    -0.26790E-01
  66.00 -28.00     0.14257    
  66.00 -27.00     0.28882    
  66.00 -26.00     0.38933    
  66.00 -25.00     0.43240    
  66.00 -24.00     0.41934    
  66.00 -23.00     0.36267    
  66.00 -22.00     0.28132    
  66.00 -21.00     0.19451    
  66.00 -20.00     0.11658    
  66.00 -19.00     0.54052E-01
  66.00 -18.00     0.58331E-02
  66.00 -17.00    -0.34004E-01
  66.00 -16.00    -0.72217E-01
  66.00 -15.00    -0.11281    
  66.00 -14.00    -0.15523    
  66.00 -13.00    -0.19504    
  66.00 -12.00    -0.22643    
  66.00 -11.00    -0.24561    
  66.00 -10.00    -0.25331    
  66.00  -9.00    -0.25522    
  66.00  -8.00    -0.25995    
  66.00  -7.00    -0.27511    
  66.00  -6.00    -0.30282    
  66.00  -5.00    -0.33675    
  66.00  -4.00    -0.36189    
  66.00  -3.00    -0.35785    
  66.00  -2.00    -0.30500    
  66.00  -1.00    -0.19167    
  66.00   0.00    -0.20116E-01
  66.00   1.00     0.19096    
  66.00   2.00     0.40862    
  66.00   3.00     0.59250    
  66.00   4.00     0.70463    
  66.00   5.00     0.71966    
  66.00   6.00     0.63242    
  66.00   7.00     0.46063    
  66.00   8.00     0.24166    
  66.00   9.00     0.23926E-01
  66.00  10.00    -0.14468    
  66.00  11.00    -0.22844    
  66.00  12.00    -0.21222    
  66.00  13.00    -0.10467    
  66.00  14.00     0.64853E-01
  66.00  15.00     0.25434    
  66.00  16.00     0.42007    
  66.00  17.00     0.52731    
  66.00  18.00     0.55798    
  66.00  19.00     0.51359    
  66.00  20.00     0.41280    
  66.00  21.00     0.28503    
  66.00  22.00     0.16187    
  66.00  23.00     0.69040E-01
  66.00  24.00     0.20919E-01
  66.00  25.00     0.18796E-01
  66.00  26.00     0.52932E-01
  66.00  27.00     0.10729    
  66.00  28.00     0.16525    
  66.00  29.00     0.21446    
  66.00  30.00     0.24958    
  66.00  31.00     0.27233    
  66.00  32.00     0.28919    
  66.00  33.00     0.30791    
  66.00  34.00     0.33402    
  66.00  35.00     0.36852    
  66.00  36.00     0.40760    
  66.00  37.00     0.44405    
  66.00  38.00     0.46999    
  66.00  39.00     0.47992    
  66.00  40.00     0.47286    
  66.00  41.00     0.45314    
  66.00  42.00     0.42932    
  66.00  43.00     0.41182    
  66.00  44.00     0.40979    
  66.00  45.00     0.42834    
  66.00  46.00     0.46671    
  66.00  47.00     0.51812    
  66.00  48.00     0.57124    
  66.00  49.00     0.61308    
  66.00  50.00     0.63213    
  66.00  51.00     0.62131    
  66.00  52.00     0.57962    
  66.00  53.00     0.51259    
  66.00  54.00     0.43077    
  66.00  55.00     0.34683    
  66.00  56.00     0.27314    
  66.00  57.00     0.21847    
  66.00  58.00     0.18655    
  66.00  59.00     0.17542    
  66.00  60.00     0.17934    
  66.00  61.00     0.19041    
  66.00  62.00     0.20160    
  66.00  63.00     0.20895    
  66.00  64.00     0.21215    
  66.00  65.00     0.21443    
  66.00  66.00     0.22082    
  66.00  67.00     0.23541    
  66.00  68.00     0.25958    
  66.00  69.00     0.28980    
  66.00  70.00     0.31866    
  66.00  71.00     0.33704    
  66.00  72.00     0.33608    
  66.00  73.00     0.31166    
  66.00  74.00     0.26638    
  66.00  75.00     0.20978    
  66.00  76.00     0.15693    
  66.00  77.00     0.12404    
  66.00  78.00     0.12436    
  66.00  79.00     0.16310    
  66.00  80.00     0.23501    
  66.00  81.00     0.32520    
  66.00  82.00     0.41019    
  66.00  83.00     0.46740    
  66.00  84.00     0.47658    
  66.00  85.00     0.42853    
  66.00  86.00     0.32793    
  66.00  87.00     0.19026    
  66.00  88.00     0.39431E-01
  66.00  89.00    -0.96371E-01
  67.00 -89.00     0.10769    
  67.00 -88.00     0.64338E-01
  67.00 -87.00     0.63013E-01
  67.00 -86.00     0.10602    
  67.00 -85.00     0.18176    
  67.00 -84.00     0.27207    
  67.00 -83.00     0.35284    
  67.00 -82.00     0.40880    
  67.00 -81.00     0.42545    
  67.00 -80.00     0.40313    
  67.00 -79.00     0.35189    
  67.00 -78.00     0.28981    
  67.00 -77.00     0.23692    
  67.00 -76.00     0.21093    
  67.00 -75.00     0.22112    
  67.00 -74.00     0.26527    
  67.00 -73.00     0.33243    
  67.00 -72.00     0.40437    
  67.00 -71.00     0.46233    
  67.00 -70.00     0.49067    
  67.00 -69.00     0.48388    
  67.00 -68.00     0.44574    
  67.00 -67.00     0.38916    
  67.00 -66.00     0.33141    
  67.00 -65.00     0.28886    
  67.00 -64.00     0.27087    
  67.00 -63.00     0.27749    
  67.00 -62.00     0.29930    
  67.00 -61.00     0.31982    
  67.00 -60.00     0.32253    
  67.00 -59.00     0.29574    
  67.00 -58.00     0.23761    
  67.00 -57.00     0.15776    
  67.00 -56.00     0.74503E-01
  67.00 -55.00     0.94113E-02
  67.00 -54.00    -0.19671E-01
  67.00 -53.00    -0.49467E-02
  67.00 -52.00     0.47218E-01
  67.00 -51.00     0.11769    
  67.00 -50.00     0.17888    
  67.00 -49.00     0.20283    
  67.00 -48.00     0.16923    
  67.00 -47.00     0.72100E-01
  67.00 -46.00    -0.78053E-01
  67.00 -45.00    -0.25654    
  67.00 -44.00    -0.43127    
  67.00 -43.00    -0.57146    
  67.00 -42.00    -0.65598    
  67.00 -41.00    -0.67871    
  67.00 -40.00    -0.64919    
  67.00 -39.00    -0.58855    
  67.00 -38.00    -0.52209    
  67.00 -37.00    -0.47076    
  67.00 -36.00    -0.44452    
  67.00 -35.00    -0.43948    
  67.00 -34.00    -0.43975    
  67.00 -33.00    -0.42342    
  67.00 -32.00    -0.37049    
  67.00 -31.00    -0.27032    
  67.00 -30.00    -0.12612    
  67.00 -29.00     0.45062E-01
  67.00 -28.00     0.21662    
  67.00 -27.00     0.35972    
  67.00 -26.00     0.45126    
  67.00 -25.00     0.47996    
  67.00 -24.00     0.44880    
  67.00 -23.00     0.37325    
  67.00 -22.00     0.27596    
  67.00 -21.00     0.17991    
  67.00 -20.00     0.10207    
  67.00 -19.00     0.49762E-01
  67.00 -18.00     0.20323E-01
  67.00 -17.00     0.40880E-02
  67.00 -16.00    -0.10819E-01
  67.00 -15.00    -0.33687E-01
  67.00 -14.00    -0.68117E-01
  67.00 -13.00    -0.11157    
  67.00 -12.00    -0.15741    
  67.00 -11.00    -0.19844    
  67.00 -10.00    -0.23018    
  67.00  -9.00    -0.25254    
  67.00  -8.00    -0.26910    
  67.00  -7.00    -0.28423    
  67.00  -6.00    -0.29923    
  67.00  -5.00    -0.30935    
  67.00  -4.00    -0.30311    
  67.00  -3.00    -0.26481    
  67.00  -2.00    -0.17971    
  67.00  -1.00    -0.40536E-01
  67.00   0.00     0.14717    
  67.00   1.00     0.36277    
  67.00   2.00     0.57277    
  67.00   3.00     0.73757    
  67.00   4.00     0.82113    
  67.00   5.00     0.80099    
  67.00   6.00     0.67561    
  67.00   7.00     0.46676    
  67.00   8.00     0.21573    
  67.00   9.00    -0.25736E-01
  67.00  10.00    -0.20767    
  67.00  11.00    -0.29395    
  67.00  12.00    -0.27088    
  67.00  13.00    -0.15013    
  67.00  14.00     0.34950E-01
  67.00  15.00     0.23830    
  67.00  16.00     0.41307    
  67.00  17.00     0.52304    
  67.00  18.00     0.55068    
  67.00  19.00     0.49975    
  67.00  20.00     0.39229    
  67.00  21.00     0.26109    
  67.00  22.00     0.14010    
  67.00  23.00     0.55660E-01
  67.00  24.00     0.20754E-01
  67.00  25.00     0.33661E-01
  67.00  26.00     0.80832E-01
  67.00  27.00     0.14271    
  67.00  28.00     0.20042    
  67.00  29.00     0.24130    
  67.00  30.00     0.26168    
  67.00  31.00     0.26648    
  67.00  32.00     0.26611    
  67.00  33.00     0.27189    
  67.00  34.00     0.29176    
  67.00  35.00     0.32760    
  67.00  36.00     0.37480    
  67.00  37.00     0.42426    
  67.00  38.00     0.46573    
  67.00  39.00     0.49157    
  67.00  40.00     0.49942    
  67.00  41.00     0.49313    
  67.00  42.00     0.48156    
  67.00  43.00     0.47577    
  67.00  44.00     0.48546    
  67.00  45.00     0.51582    
  67.00  46.00     0.56549    
  67.00  47.00     0.62673    
  67.00  48.00     0.68701    
  67.00  49.00     0.73236    
  67.00  50.00     0.75088    
  67.00  51.00     0.73572    
  67.00  52.00     0.68680    
  67.00  53.00     0.61094    
  67.00  54.00     0.51995    
  67.00  55.00     0.42750    
  67.00  56.00     0.34650    
  67.00  57.00     0.28566    
  67.00  58.00     0.24819    
  67.00  59.00     0.23148    
  67.00  60.00     0.22902    
  67.00  61.00     0.23244    
  67.00  62.00     0.23455    
  67.00  63.00     0.23157    
  67.00  64.00     0.22373    
  67.00  65.00     0.21501    
  67.00  66.00     0.21127    
  67.00  67.00     0.21758    
  67.00  68.00     0.23613    
  67.00  69.00     0.26408    
  67.00  70.00     0.29432    
  67.00  71.00     0.31757    
  67.00  72.00     0.32444    
  67.00  73.00     0.30968    
  67.00  74.00     0.27437    
  67.00  75.00     0.22651    
  67.00  76.00     0.17972    
  67.00  77.00     0.14935    
  67.00  78.00     0.14840    
  67.00  79.00     0.18274    
  67.00  80.00     0.24823    
  67.00  81.00     0.33150    
  67.00  82.00     0.41051    
  67.00  83.00     0.46363    
  67.00  84.00     0.47104    
  67.00  85.00     0.42341    
  67.00  86.00     0.32448    
  67.00  87.00     0.18895    
  67.00  88.00     0.39433E-01
  67.00  89.00    -0.95919E-01
  68.00 -89.00     0.10777    
  68.00 -88.00     0.63954E-01
  68.00 -87.00     0.61128E-01
  68.00 -86.00     0.10152    
  68.00 -85.00     0.17377    
  68.00 -84.00     0.26011    
  68.00 -83.00     0.33679    
  68.00 -82.00     0.38981    
  68.00 -81.00     0.40460    
  68.00 -80.00     0.38173    
  68.00 -79.00     0.33087    
  68.00 -78.00     0.26973    
  68.00 -77.00     0.21799    
  68.00 -76.00     0.19312    
  68.00 -75.00     0.20455    
  68.00 -74.00     0.25046    
  68.00 -73.00     0.32028    
  68.00 -72.00     0.39595    
  68.00 -71.00     0.45855    
  68.00 -70.00     0.49185    
  68.00 -69.00     0.48931    
  68.00 -68.00     0.45393    
  68.00 -67.00     0.39799    
  68.00 -66.00     0.33869    
  68.00 -65.00     0.29313    
  68.00 -64.00     0.27154    
  68.00 -63.00     0.27513    
  68.00 -62.00     0.29526    
  68.00 -61.00     0.31561    
  68.00 -60.00     0.31898    
  68.00 -59.00     0.29259    
  68.00 -58.00     0.23335    
  68.00 -57.00     0.15015    
  68.00 -56.00     0.61618E-01
  68.00 -55.00    -0.94472E-02
  68.00 -54.00    -0.42872E-01
  68.00 -53.00    -0.28369E-01
  68.00 -52.00     0.29647E-01
  68.00 -51.00     0.11275    
  68.00 -50.00     0.19213    
  68.00 -49.00     0.23699    
  68.00 -48.00     0.22289    
  68.00 -47.00     0.13958    
  68.00 -46.00    -0.58203E-02
  68.00 -45.00    -0.19011    
  68.00 -44.00    -0.38035    
  68.00 -43.00    -0.54260    
  68.00 -42.00    -0.65116    
  68.00 -41.00    -0.69497    
  68.00 -40.00    -0.67948    
  68.00 -39.00    -0.62352    
  68.00 -38.00    -0.55227    
  68.00 -37.00    -0.48857    
  68.00 -36.00    -0.44559    
  68.00 -35.00    -0.42293    
  68.00 -34.00    -0.40771    
  68.00 -33.00    -0.37978    
  68.00 -32.00    -0.31969    
  68.00 -31.00    -0.21633    
  68.00 -30.00    -0.72014E-01
  68.00 -29.00     0.96956E-01
  68.00 -28.00     0.26425    
  68.00 -27.00     0.40086    
  68.00 -26.00     0.48339    
  68.00 -25.00     0.50071    
  68.00 -24.00     0.45687    
  68.00 -23.00     0.36940    
  68.00 -22.00     0.26387    
  68.00 -21.00     0.16619    
  68.00 -20.00     0.95518E-01
  68.00 -19.00     0.59659E-01
  68.00 -18.00     0.54334E-01
  68.00 -17.00     0.66211E-01
  68.00 -16.00     0.78406E-01
  68.00 -15.00     0.76427E-01
  68.00 -14.00     0.52573E-01
  68.00 -13.00     0.74791E-02
  68.00 -12.00    -0.51378E-01
  68.00 -11.00    -0.11330    
  68.00 -10.00    -0.16851    
  68.00  -9.00    -0.21102    
  68.00  -8.00    -0.23937    
  68.00  -7.00    -0.25480    
  68.00  -6.00    -0.25816    
  68.00  -5.00    -0.24686    
  68.00  -4.00    -0.21363    
  68.00  -3.00    -0.14808    
  68.00  -2.00    -0.40720E-01
  68.00  -1.00     0.11154    
  68.00   0.00     0.30066    
  68.00   1.00     0.50546    
  68.00   2.00     0.69381    
  68.00   3.00     0.82890    
  68.00   4.00     0.87843    
  68.00   5.00     0.82403    
  68.00   6.00     0.66808    
  68.00   7.00     0.43564    
  68.00   8.00     0.17024    
  68.00   9.00    -0.75458E-01
  68.00  10.00    -0.25207    
  68.00  11.00    -0.32556    
  68.00  12.00    -0.28555    
  68.00  13.00    -0.14771    
  68.00  14.00     0.50593E-01
  68.00  15.00     0.26017    
  68.00  16.00     0.43258    
  68.00  17.00     0.53203    
  68.00  18.00     0.54337    
  68.00  19.00     0.47425    
  68.00  20.00     0.35110    
  68.00  21.00     0.21060    
  68.00  22.00     0.89055E-01
  68.00  23.00     0.12979E-01
  68.00  24.00    -0.66969E-02
  68.00  25.00     0.24506E-01
  68.00  26.00     0.88467E-01
  68.00  27.00     0.16144    
  68.00  28.00     0.22181    
  68.00  29.00     0.25625    
  68.00  30.00     0.26265    
  68.00  31.00     0.24922    
  68.00  32.00     0.23050    
  68.00  33.00     0.22180    
  68.00  34.00     0.23399    
  68.00  35.00     0.27024    
  68.00  36.00     0.32553    
  68.00  37.00     0.38900    
  68.00  38.00     0.44791    
  68.00  39.00     0.49206    
  68.00  40.00     0.51708    
  68.00  41.00     0.52558    
  68.00  42.00     0.52604    
  68.00  43.00     0.52968    
  68.00  44.00     0.54661    
  68.00  45.00     0.58240    
  68.00  46.00     0.63581    
  68.00  47.00     0.69907    
  68.00  48.00     0.75962    
  68.00  49.00     0.80348    
  68.00  50.00     0.81910    
  68.00  51.00     0.80026    
  68.00  52.00     0.74766    
  68.00  53.00     0.66887    
  68.00  54.00     0.57616    
  68.00  55.00     0.48320    
  68.00  56.00     0.40252    
  68.00  57.00     0.34199    
  68.00  58.00     0.30387    
  68.00  59.00     0.28474    
  68.00  60.00     0.27750    
  68.00  61.00     0.27370    
  68.00  62.00     0.26647    
  68.00  63.00     0.25268    
  68.00  64.00     0.23349    
  68.00  65.00     0.21383    
  68.00  66.00     0.20051    
  68.00  67.00     0.19946    
  68.00  68.00     0.21348    
  68.00  69.00     0.24025    
  68.00  70.00     0.27274    
  68.00  71.00     0.30142    
  68.00  72.00     0.31629    
  68.00  73.00     0.31104    
  68.00  74.00     0.28525    
  68.00  75.00     0.24552    
  68.00  76.00     0.20417    
  68.00  77.00     0.17569    
  68.00  78.00     0.17299    
  68.00  79.00     0.20253    
  68.00  80.00     0.26135    
  68.00  81.00     0.33751    
  68.00  82.00     0.41048    
  68.00  83.00     0.45949    
  68.00  84.00     0.46514    
  68.00  85.00     0.41799    
  68.00  86.00     0.32081    
  68.00  87.00     0.18749    
  68.00  88.00     0.39357E-01
  68.00  89.00    -0.95498E-01
  69.00 -89.00     0.10788    
  69.00 -88.00     0.63598E-01
  69.00 -87.00     0.59251E-01
  69.00 -86.00     0.96957E-01
  69.00 -85.00     0.16562    
  69.00 -84.00     0.24787    
  69.00 -83.00     0.32048    
  69.00 -82.00     0.37040    
  69.00 -81.00     0.38326    
  69.00 -80.00     0.35977    
  69.00 -79.00     0.30920    
  69.00 -78.00     0.24880    
  69.00 -77.00     0.19793    
  69.00 -76.00     0.17374    
  69.00 -75.00     0.18575    
  69.00 -74.00     0.23264    
  69.00 -73.00     0.30415    
  69.00 -72.00     0.38248    
  69.00 -71.00     0.44852    
  69.00 -70.00     0.48549    
  69.00 -69.00     0.48586    
  69.00 -68.00     0.45185    
  69.00 -67.00     0.39518    
  69.00 -66.00     0.33306    
  69.00 -65.00     0.28340    
  69.00 -64.00     0.25755    
  69.00 -63.00     0.25803    
  69.00 -62.00     0.27711    
  69.00 -61.00     0.29873    
  69.00 -60.00     0.30496    
  69.00 -59.00     0.28169    
  69.00 -58.00     0.22425    
  69.00 -57.00     0.14032    
  69.00 -56.00     0.48269E-01
  69.00 -55.00    -0.28276E-01
  69.00 -54.00    -0.67146E-01
  69.00 -53.00    -0.55635E-01
  69.00 -52.00     0.40196E-02
  69.00 -51.00     0.94530E-01
  69.00 -50.00     0.18657    
  69.00 -49.00     0.24721    
  69.00 -48.00     0.24869    
  69.00 -47.00     0.17704    
  69.00 -46.00     0.36458E-01
  69.00 -45.00    -0.15119    
  69.00 -44.00    -0.35214    
  69.00 -43.00    -0.52965    
  69.00 -42.00    -0.65397    
  69.00 -41.00    -0.70972    
  69.00 -40.00    -0.69904    
  69.00 -39.00    -0.63929    
  69.00 -38.00    -0.55636    
  69.00 -37.00    -0.47577    
  69.00 -36.00    -0.41443    
  69.00 -35.00    -0.37587    
  69.00 -34.00    -0.35013    
  69.00 -33.00    -0.31850    
  69.00 -32.00    -0.26124    
  69.00 -31.00    -0.16565    
  69.00 -30.00    -0.31835E-01
  69.00 -29.00     0.12596    
  69.00 -28.00     0.28278    
  69.00 -27.00     0.41013    
  69.00 -26.00     0.48455    
  69.00 -25.00     0.49471    
  69.00 -24.00     0.44491    
  69.00 -23.00     0.35374    
  69.00 -22.00     0.24846    
  69.00 -21.00     0.15696    
  69.00 -20.00     0.99833E-01
  69.00 -19.00     0.85055E-01
  69.00 -18.00     0.10678    
  69.00 -17.00     0.14837    
  69.00 -16.00     0.18847    
  69.00 -15.00     0.20797    
  69.00 -14.00     0.19555    
  69.00 -13.00     0.15027    
  69.00 -12.00     0.80532E-01
  69.00 -11.00     0.41558E-03
  69.00 -10.00    -0.75295E-01
  69.00  -9.00    -0.13523    
  69.00  -8.00    -0.17344    
  69.00  -7.00    -0.18877    
  69.00  -6.00    -0.18227    
  69.00  -5.00    -0.15413    
  69.00  -4.00    -0.10170    
  69.00  -3.00    -0.19914E-01
  69.00  -2.00     0.95875E-01
  69.00  -1.00     0.24550    
  69.00   0.00     0.41987    
  69.00   1.00     0.59912    
  69.00   2.00     0.75435    
  69.00   3.00     0.85330    
  69.00   4.00     0.86861    
  69.00   5.00     0.78638    
  69.00   6.00     0.61239    
  69.00   7.00     0.37347    
  69.00   8.00     0.11325    
  69.00   9.00    -0.11725    
  69.00  10.00    -0.27169    
  69.00  11.00    -0.32007    
  69.00  12.00    -0.25651    
  69.00  13.00    -0.10091    
  69.00  14.00     0.10607    
  69.00  15.00     0.31349    
  69.00  16.00     0.47312    
  69.00  17.00     0.55140    
  69.00  18.00     0.53710    
  69.00  19.00     0.44273    
  69.00  20.00     0.29961    
  69.00  21.00     0.14822    
  69.00  22.00     0.26750E-01
  69.00  23.00    -0.38782E-01
  69.00  24.00    -0.40233E-01
  69.00  25.00     0.12432E-01
  69.00  26.00     0.96004E-01
  69.00  27.00     0.18219    
  69.00  28.00     0.24639    
  69.00  29.00     0.27451    
  69.00  30.00     0.26596    
  69.00  31.00     0.23231    
  69.00  32.00     0.19244    
  69.00  33.00     0.16595    
  69.00  34.00     0.16707    
  69.00  35.00     0.20071    
  69.00  36.00     0.26187    
  69.00  37.00     0.33817    
  69.00  38.00     0.41439    
  69.00  39.00     0.47751    
  69.00  40.00     0.52058    
  69.00  41.00     0.54430    
  69.00  42.00     0.55604    
  69.00  43.00     0.56666    
  69.00  44.00     0.58648    
  69.00  45.00     0.62162    
  69.00  46.00     0.67156    
  69.00  47.00     0.72943    
  69.00  48.00     0.78369    
  69.00  49.00     0.82138    
  69.00  50.00     0.83210    
  69.00  51.00     0.81055    
  69.00  52.00     0.75820    
  69.00  53.00     0.68281    
  69.00  54.00     0.59625    
  69.00  55.00     0.51130    
  69.00  56.00     0.43906    
  69.00  57.00     0.38583    
  69.00  58.00     0.35243    
  69.00  59.00     0.33452    
  69.00  60.00     0.32454    
  69.00  61.00     0.31433    
  69.00  62.00     0.29781    
  69.00  63.00     0.27300    
  69.00  64.00     0.24233    
  69.00  65.00     0.21194    
  69.00  66.00     0.18959    
  69.00  67.00     0.18202    
  69.00  68.00     0.19249    
  69.00  69.00     0.21897    
  69.00  70.00     0.25440    
  69.00  71.00     0.28885    
  69.00  72.00     0.31170    
  69.00  73.00     0.31561    
  69.00  74.00     0.29881    
  69.00  75.00     0.26654    
  69.00  76.00     0.22996    
  69.00  77.00     0.20280    
  69.00  78.00     0.19788    
  69.00  79.00     0.22229    
  69.00  80.00     0.27423    
  69.00  81.00     0.34317    
  69.00  82.00     0.41004    
  69.00  83.00     0.45495    
  69.00  84.00     0.45890    
  69.00  85.00     0.41230    
  69.00  86.00     0.31692    
  69.00  87.00     0.18586    
  69.00  88.00     0.39203E-01
  69.00  89.00    -0.95108E-01
  70.00 -89.00     0.10800    
  70.00 -88.00     0.63274E-01
  70.00 -87.00     0.57394E-01
  70.00 -86.00     0.92337E-01
  70.00 -85.00     0.15736    
  70.00 -84.00     0.23543    
  70.00 -83.00     0.30399    
  70.00 -82.00     0.35069    
  70.00 -81.00     0.36159    
  70.00 -80.00     0.33746    
  70.00 -79.00     0.28709    
  70.00 -78.00     0.22728    
  70.00 -77.00     0.17701    
  70.00 -76.00     0.15306    
  70.00 -75.00     0.16503    
  70.00 -74.00     0.21209    
  70.00 -73.00     0.28436    
  70.00 -72.00     0.36430    
  70.00 -71.00     0.43265    
  70.00 -70.00     0.47215    
  70.00 -69.00     0.47428    
  70.00 -68.00     0.44048    
  70.00 -67.00     0.38193    
  70.00 -66.00     0.31596    
  70.00 -65.00     0.26129    
  70.00 -64.00     0.23063    
  70.00 -63.00     0.22794    
  70.00 -62.00     0.24657    
  70.00 -61.00     0.27084    
  70.00 -60.00     0.28207    
  70.00 -59.00     0.26465    
  70.00 -58.00     0.21201    
  70.00 -57.00     0.13011    
  70.00 -56.00     0.36501E-01
  70.00 -55.00    -0.44850E-01
  70.00 -54.00    -0.90197E-01
  70.00 -53.00    -0.84556E-01
  70.00 -52.00    -0.27805E-01
  70.00 -51.00     0.64351E-01
  70.00 -50.00     0.16282    
  70.00 -49.00     0.23337    
  70.00 -48.00     0.24579    
  70.00 -47.00     0.18316    
  70.00 -46.00     0.47199E-01
  70.00 -45.00    -0.14137    
  70.00 -44.00    -0.34810    
  70.00 -43.00    -0.53390    
  70.00 -42.00    -0.66556    
  70.00 -41.00    -0.72420    
  70.00 -40.00    -0.70949    
  70.00 -39.00    -0.63811    
  70.00 -38.00    -0.53743    
  70.00 -37.00    -0.43621    
  70.00 -36.00    -0.35563    
  70.00 -35.00    -0.30327    
  70.00 -34.00    -0.27204    
  70.00 -33.00    -0.24425    
  70.00 -32.00    -0.19914    
  70.00 -31.00    -0.12142    
  70.00 -30.00    -0.78286E-02
  70.00 -29.00     0.13064    
  70.00 -28.00     0.27142    
  70.00 -27.00     0.38720    
  70.00 -26.00     0.45461    
  70.00 -25.00     0.46184    
  70.00 -24.00     0.41264    
  70.00 -23.00     0.32553    
  70.00 -22.00     0.22827    
  70.00 -21.00     0.14958    
  70.00 -20.00     0.11071    
  70.00 -19.00     0.11944    
  70.00 -18.00     0.16848    
  70.00 -17.00     0.23844    
  70.00 -16.00     0.30433    
  70.00 -15.00     0.34334    
  70.00 -14.00     0.34137    
  70.00 -13.00     0.29646    
  70.00 -12.00     0.21820    
  70.00 -11.00     0.12379    
  70.00 -10.00     0.32436E-01
  70.00  -9.00    -0.39981E-01
  70.00  -8.00    -0.84108E-01
  70.00  -7.00    -0.97455E-01
  70.00  -6.00    -0.82228E-01
  70.00  -5.00    -0.41998E-01
  70.00  -4.00     0.21086E-01
  70.00  -3.00     0.10713    
  70.00  -2.00     0.21689    
  70.00  -1.00     0.34840    
  70.00   0.00     0.49335    
  70.00   1.00     0.63510    
  70.00   2.00     0.74980    
  70.00   3.00     0.81098    
  70.00   4.00     0.79674    
  70.00   5.00     0.69731    
  70.00   6.00     0.52055    
  70.00   7.00     0.29314    
  70.00   8.00     0.56382E-01
  70.00   9.00    -0.14268    
  70.00  10.00    -0.26271    
  70.00  11.00    -0.27898    
  70.00  12.00    -0.19032    
  70.00  13.00    -0.20236E-01
  70.00  14.00     0.18873    
  70.00  15.00     0.38568    
  70.00  16.00     0.52444    
  70.00  17.00     0.57518    
  70.00  18.00     0.53152    
  70.00  19.00     0.41114    
  70.00  20.00     0.24989    
  70.00  21.00     0.91291E-01
  70.00  22.00    -0.25544E-01
  70.00  23.00    -0.75999E-01
  70.00  24.00    -0.55418E-01
  70.00  25.00     0.21362E-01
  70.00  26.00     0.12590    
  70.00  27.00     0.22541    
  70.00  28.00     0.29243    
  70.00  29.00     0.31224    
  70.00  30.00     0.28584    
  70.00  31.00     0.22825    
  70.00  32.00     0.16278    
  70.00  33.00     0.11356    
  70.00  34.00     0.98418E-01
  70.00  35.00     0.12447    
  70.00  36.00     0.18716    
  70.00  37.00     0.27296    
  70.00  38.00     0.36433    
  70.00  39.00     0.44532    
  70.00  40.00     0.50604    
  70.00  41.00     0.54468    
  70.00  42.00     0.56681    
  70.00  43.00     0.58233    
  70.00  44.00     0.60144    
  70.00  45.00     0.63084    
  70.00  46.00     0.67119    
  70.00  47.00     0.71728    
  70.00  48.00     0.75953    
  70.00  49.00     0.78699    
  70.00  50.00     0.79108    
  70.00  51.00     0.76792    
  70.00  52.00     0.71962    
  70.00  53.00     0.65370    
  70.00  54.00     0.58090    
  70.00  55.00     0.51215    
  70.00  56.00     0.45623    
  70.00  57.00     0.41715    
  70.00  58.00     0.39382    
  70.00  59.00     0.38082    
  70.00  60.00     0.37030    
  70.00  61.00     0.35471    
  70.00  62.00     0.32922    
  70.00  63.00     0.29340    
  70.00  64.00     0.25129    
  70.00  65.00     0.21044    
  70.00  66.00     0.17964    
  70.00  67.00     0.16629    
  70.00  68.00     0.17401    
  70.00  69.00     0.20090    
  70.00  70.00     0.23970    
  70.00  71.00     0.28006    
  70.00  72.00     0.31066    
  70.00  73.00     0.32325    
  70.00  74.00     0.31477    
  70.00  75.00     0.28926    
  70.00  76.00     0.25678    
  70.00  77.00     0.23037    
  70.00  78.00     0.22282    
  70.00  79.00     0.24183    
  70.00  80.00     0.28673    
  70.00  81.00     0.34838    
  70.00  82.00     0.40914    
  70.00  83.00     0.45000    
  70.00  84.00     0.45232    
  70.00  85.00     0.40632    
  70.00  86.00     0.31282    
  70.00  87.00     0.18407    
  70.00  88.00     0.38973E-01
  70.00  89.00    -0.94750E-01
  71.00 -89.00     0.10815    
  71.00 -88.00     0.62983E-01
  71.00 -87.00     0.55562E-01
  71.00 -86.00     0.87683E-01
  71.00 -85.00     0.14900    
  71.00 -84.00     0.22281    
  71.00 -83.00     0.28741    
  71.00 -82.00     0.33078    
  71.00 -81.00     0.33973    
  71.00 -80.00     0.31497    
  71.00 -79.00     0.26476    
  71.00 -78.00     0.20544    
  71.00 -77.00     0.15552    
  71.00 -76.00     0.13141    
  71.00 -75.00     0.14272    
  71.00 -74.00     0.18919    
  71.00 -73.00     0.26130    
  71.00 -72.00     0.34188    
  71.00 -71.00     0.41153    
  71.00 -70.00     0.45259    
  71.00 -69.00     0.45556    
  71.00 -68.00     0.42112    
  71.00 -67.00     0.35986    
  71.00 -66.00     0.28929    
  71.00 -65.00     0.22891    
  71.00 -64.00     0.19303    
  71.00 -63.00     0.18711    
  71.00 -62.00     0.20579    
  71.00 -61.00     0.23392    
  71.00 -60.00     0.25210    
  71.00 -59.00     0.24313    
  71.00 -58.00     0.19824    
  71.00 -57.00     0.12123    
  71.00 -56.00     0.28236E-01
  71.00 -55.00    -0.56938E-01
  71.00 -54.00    -0.10945    
  71.00 -53.00    -0.11224    
  71.00 -52.00    -0.62699E-01
  71.00 -51.00     0.25468E-01
  71.00 -50.00     0.12416    
  71.00 -49.00     0.19873    
  71.00 -48.00     0.21741    
  71.00 -47.00     0.16105    
  71.00 -46.00     0.29428E-01
  71.00 -45.00    -0.15779    
  71.00 -44.00    -0.36569    
  71.00 -43.00    -0.55339    
  71.00 -42.00    -0.68495    
  71.00 -41.00    -0.73881    
  71.00 -40.00    -0.71293    
  71.00 -39.00    -0.62403    
  71.00 -38.00    -0.50145    
  71.00 -37.00    -0.37756    
  71.00 -36.00    -0.27793    
  71.00 -35.00    -0.21422    
  71.00 -34.00    -0.18206    
  71.00 -33.00    -0.16439    
  71.00 -32.00    -0.13893    
  71.00 -31.00    -0.87077E-01
  71.00 -30.00    -0.13571E-02
  71.00 -29.00     0.11133    
  71.00 -28.00     0.23157    
  71.00 -27.00     0.33378    
  71.00 -26.00     0.39489    
  71.00 -25.00     0.40234    
  71.00 -24.00     0.35874    
  71.00 -23.00     0.28156    
  71.00 -22.00     0.19797    
  71.00 -21.00     0.13650    
  71.00 -20.00     0.11827    
  71.00 -19.00     0.15052    
  71.00 -18.00     0.22467    
  71.00 -17.00     0.31918    
  71.00 -16.00     0.40639    
  71.00 -15.00     0.46087    
  71.00 -14.00     0.46681    
  71.00 -13.00     0.42195    
  71.00 -12.00     0.33733    
  71.00 -11.00     0.23311    
  71.00 -10.00     0.13221    
  71.00  -9.00     0.53901E-01
  71.00  -8.00     0.96509E-02
  71.00  -7.00     0.19864E-02
  71.00  -6.00     0.26494E-01
  71.00  -5.00     0.75598E-01
  71.00  -4.00     0.14233    
  71.00  -3.00     0.22243    
  71.00  -2.00     0.31400    
  71.00  -1.00     0.41495    
  71.00   0.00     0.51964    
  71.00   1.00     0.61648    
  71.00   2.00     0.68806    
  71.00   3.00     0.71445    
  71.00   4.00     0.67911    
  71.00   5.00     0.57536    
  71.00   6.00     0.41145    
  71.00   7.00     0.21166    
  71.00   8.00     0.12719E-01
  71.00   9.00    -0.14427    
  71.00  10.00    -0.22419    
  71.00  11.00    -0.20786    
  71.00  12.00    -0.98189E-01
  71.00  13.00     0.79230E-01
  71.00  14.00     0.28189    
  71.00  15.00     0.46100    
  71.00  16.00     0.57409    
  71.00  17.00     0.59608    
  71.00  18.00     0.52565    
  71.00  19.00     0.38508    
  71.00  20.00     0.21362    
  71.00  21.00     0.56386E-01
  71.00  22.00    -0.47929E-01
  71.00  23.00    -0.77161E-01
  71.00  24.00    -0.30709E-01
  71.00  25.00     0.71656E-01
  71.00  26.00     0.19657    
  71.00  27.00     0.30726    
  71.00  28.00     0.37392    
  71.00  29.00     0.38158    
  71.00  30.00     0.33302    
  71.00  31.00     0.24671    
  71.00  32.00     0.15035    
  71.00  33.00     0.72546E-01
  71.00  34.00     0.34932E-01
  71.00  35.00     0.47099E-01
  71.00  36.00     0.10541    
  71.00  37.00     0.19565    
  71.00  38.00     0.29830    
  71.00  39.00     0.39462    
  71.00  40.00     0.47158    
  71.00  41.00     0.52440    
  71.00  42.00     0.55623    
  71.00  43.00     0.57539    
  71.00  44.00     0.59148    
  71.00  45.00     0.61162    
  71.00  46.00     0.63794    
  71.00  47.00     0.66737    
  71.00  48.00     0.69310    
  71.00  49.00     0.70702    
  71.00  50.00     0.70308    
  71.00  51.00     0.67917    
  71.00  52.00     0.63815    
  71.00  53.00     0.58689    
  71.00  54.00     0.53439    
  71.00  55.00     0.48899    
