-113.00 -69.00     0.11772E-01
-113.00 -68.00     0.11568E-01
-113.00 -67.00     0.26914E-01
-113.00 -66.00     0.73296E-01
-113.00 -65.00     0.15640    
-113.00 -64.00     0.26679    
-113.00 -63.00     0.38231    
-113.00 -62.00     0.47261    
-113.00 -61.00     0.50735    
-113.00 -60.00     0.46717    
-113.00 -59.00     0.35047    
-113.00 -58.00     0.17675    
-113.00 -57.00    -0.16796E-01
-113.00 -56.00    -0.18392    
-113.00 -55.00    -0.28212    
-113.00 -54.00    -0.28498    
-113.00 -53.00    -0.19115    
-113.00 -52.00    -0.27085E-01
-113.00 -51.00     0.15876    
-113.00 -50.00     0.30781    
-113.00 -49.00     0.36671    
-113.00 -48.00     0.30291    
-113.00 -47.00     0.11442    
-113.00 -46.00    -0.16756    
-113.00 -45.00    -0.48523    
-113.00 -44.00    -0.76798    
-113.00 -43.00    -0.95009    
-113.00 -42.00    -0.98733    
-113.00 -41.00    -0.86856    
-113.00 -40.00    -0.61847    
-113.00 -39.00    -0.29150    
-113.00 -38.00     0.42012E-01
-113.00 -37.00     0.31335    
-113.00 -36.00     0.47204    
-113.00 -35.00     0.49711    
-113.00 -34.00     0.40037    
-113.00 -33.00     0.22077    
-113.00 -32.00     0.12107E-01
-113.00 -31.00    -0.17256    
-113.00 -30.00    -0.29518    
-113.00 -29.00    -0.34179    
-113.00 -28.00    -0.32398    
-113.00 -27.00    -0.27274    
-113.00 -26.00    -0.22671    
-113.00 -25.00    -0.21855    
-113.00 -24.00    -0.26362    
-113.00 -23.00    -0.35424    
-113.00 -22.00    -0.46155    
-113.00 -21.00    -0.54406    
-113.00 -20.00    -0.56071    
-113.00 -19.00    -0.48433    
-113.00 -18.00    -0.31153    
-113.00 -17.00    -0.66011E-01
-113.00 -16.00     0.20597    
-113.00 -15.00     0.44678    
-113.00 -14.00     0.60232    
-113.00 -13.00     0.63639    
-113.00 -12.00     0.54067    
-113.00 -11.00     0.33725    
-113.00 -10.00     0.73079E-01
-113.00  -9.00    -0.19213    
-113.00  -8.00    -0.40139    
-113.00  -7.00    -0.51493    
-113.00  -6.00    -0.51971    
-113.00  -5.00    -0.43159    
-113.00  -4.00    -0.28953    
-113.00  -3.00    -0.14370    
-113.00  -2.00    -0.41024E-01
-113.00  -1.00    -0.12160E-01
-113.00   0.00    -0.63552E-01
-113.00   1.00    -0.17668    
-113.00   2.00    -0.31443    
-113.00   3.00    -0.43245    
-113.00   4.00    -0.49225    
-113.00   5.00    -0.47196    
-113.00   6.00    -0.37202    
-113.00   7.00    -0.21420    
-113.00   8.00    -0.34594E-01
-113.00   9.00     0.12705    
-113.00  10.00     0.23849    
-113.00  11.00     0.28326    
-113.00  12.00     0.26393    
-113.00  13.00     0.19952    
-113.00  14.00     0.11844    
-113.00  15.00     0.49176E-01
-113.00  16.00     0.11780E-01
-113.00  17.00     0.12636E-01
-113.00  18.00     0.43883E-01
-113.00  19.00     0.87327E-01
-113.00  20.00     0.12128    
-113.00  21.00     0.12797    
-113.00  22.00     0.99073E-01
-113.00  23.00     0.37826E-01
-113.00  24.00    -0.42860E-01
-113.00  25.00    -0.12530    
-113.00  26.00    -0.19322    
-113.00  27.00    -0.23703    
-113.00  28.00    -0.25666    
-113.00  29.00    -0.26091    
-113.00  30.00    -0.26405    
-113.00  31.00    -0.28055    
-113.00  32.00    -0.32014    
-113.00  33.00    -0.38448    
-113.00  34.00    -0.46657    
-113.00  35.00    -0.55282    
-113.00  36.00    -0.62694    
-113.00  37.00    -0.67428    
-113.00  38.00    -0.68517    
-113.00  39.00    -0.65650    
-113.00  40.00    -0.59119    
-113.00  41.00    -0.49618    
-113.00  42.00    -0.38017    
-113.00  43.00    -0.25127    
-113.00  44.00    -0.11665    
-113.00  45.00     0.17415E-01
-113.00  46.00     0.14451    
-113.00  47.00     0.25687    
-113.00  48.00     0.34597    
-113.00  49.00     0.40359    
-113.00  50.00     0.42417    
-113.00  51.00     0.40706    
-113.00  52.00     0.35807    
-113.00  53.00     0.28865    
-113.00  54.00     0.21379    
-113.00  55.00     0.14762    
-113.00  56.00     0.99269E-01
-113.00  57.00     0.69749E-01
-113.00  58.00     0.51290E-01
-113.00  59.00     0.29889E-01
-113.00  60.00    -0.99732E-02
-113.00  61.00    -0.79084E-01
-113.00  62.00    -0.17871    
-113.00  63.00    -0.29795    
-113.00  64.00    -0.41558    
-113.00  65.00    -0.50494    
-113.00  66.00    -0.54163    
-113.00  67.00    -0.51075    
-113.00  68.00    -0.41286    
-113.00  69.00    -0.26484    
-113.00  70.00    -0.96014E-01
-113.00  71.00     0.58944E-01
-113.00  72.00     0.16916    
-113.00  73.00     0.21659    
-113.00  74.00     0.19939    
-113.00  75.00     0.13271    
-113.00  76.00     0.43730E-01
-113.00  77.00    -0.37928E-01
-113.00  78.00    -0.88304E-01
-113.00  79.00    -0.96261E-01
-113.00  80.00    -0.67826E-01
-113.00  81.00    -0.21625E-01
-113.00  82.00     0.16313E-01
-113.00  83.00     0.20677E-01
-113.00  84.00    -0.22359E-01
-113.00  85.00    -0.11339    
-113.00  86.00    -0.23964    
-113.00  87.00    -0.37619    
-113.00  88.00    -0.49558    
-113.00  89.00    -0.57504    
-112.00 -89.00    -0.14242    
-112.00 -88.00    -0.17075    
-112.00 -87.00    -0.21830    
-112.00 -86.00    -0.27391    
-112.00 -85.00    -0.32781    
-112.00 -84.00    -0.37777    
-112.00 -83.00    -0.42153    
-112.00 -82.00    -0.45571    
-112.00 -81.00    -0.48463    
-112.00 -80.00    -0.50549    
-112.00 -79.00    -0.51408    
-112.00 -78.00    -0.50484    
-112.00 -77.00    -0.47156    
-112.00 -76.00    -0.41303    
-112.00 -75.00    -0.33279    
-112.00 -74.00    -0.24100    
-112.00 -73.00    -0.15160    
-112.00 -72.00    -0.78373E-01
-112.00 -71.00    -0.29746E-01
-112.00 -70.00    -0.60383E-02
-112.00 -69.00     0.20721E-02
-112.00 -68.00     0.11142E-01
-112.00 -67.00     0.39626E-01
-112.00 -66.00     0.10096    
-112.00 -65.00     0.19776    
-112.00 -64.00     0.31786    
-112.00 -63.00     0.43677    
-112.00 -62.00     0.52343    
-112.00 -61.00     0.54828    
-112.00 -60.00     0.49471    
-112.00 -59.00     0.36480    
-112.00 -58.00     0.18198    
-112.00 -57.00    -0.13722E-01
-112.00 -56.00    -0.17509    
-112.00 -55.00    -0.26123    
-112.00 -54.00    -0.24959    
-112.00 -53.00    -0.14420    
-112.00 -52.00     0.23186E-01
-112.00 -51.00     0.20034    
-112.00 -50.00     0.32776    
-112.00 -49.00     0.35486    
-112.00 -48.00     0.25482    
-112.00 -47.00     0.33398E-01
-112.00 -46.00    -0.27037    
-112.00 -45.00    -0.59283    
-112.00 -44.00    -0.86113    
-112.00 -43.00     -1.0116    
-112.00 -42.00     -1.0058    
-112.00 -41.00    -0.84097    
-112.00 -40.00    -0.55008    
-112.00 -39.00    -0.19403    
-112.00 -38.00     0.15395    
-112.00 -37.00     0.42632    
-112.00 -36.00     0.57712    
-112.00 -35.00     0.59154    
-112.00 -34.00     0.48699    
-112.00 -33.00     0.30555    
-112.00 -32.00     0.10055    
-112.00 -31.00    -0.78944E-01
-112.00 -30.00    -0.20101    
-112.00 -29.00    -0.25784    
-112.00 -28.00    -0.26494    
-112.00 -27.00    -0.25324    
-112.00 -26.00    -0.25682    
-112.00 -25.00    -0.30008    
-112.00 -24.00    -0.38845    
-112.00 -23.00    -0.50532    
-112.00 -22.00    -0.61634    
-112.00 -21.00    -0.67960    
-112.00 -20.00    -0.65892    
-112.00 -19.00    -0.53605    
-112.00 -18.00    -0.31824    
-112.00 -17.00    -0.38775E-01
-112.00 -16.00     0.24998    
-112.00 -15.00     0.48909    
-112.00 -14.00     0.62791    
-112.00 -13.00     0.63714    
-112.00 -12.00     0.51640    
-112.00 -11.00     0.29446    
-112.00 -10.00     0.21701E-01
-112.00  -9.00    -0.24275    
-112.00  -8.00    -0.44602    
-112.00  -7.00    -0.55437    
-112.00  -6.00    -0.56066    
-112.00  -5.00    -0.48442    
-112.00  -4.00    -0.36477    
-112.00  -3.00    -0.24838    
-112.00  -2.00    -0.17589    
-112.00  -1.00    -0.17062    
-112.00   0.00    -0.23265    
-112.00   1.00    -0.33980    
-112.00   2.00    -0.45487    
-112.00   3.00    -0.53698    
-112.00   4.00    -0.55360    
-112.00   5.00    -0.48981    
-112.00   6.00    -0.35226    
-112.00   7.00    -0.16690    
-112.00   8.00     0.28631E-01
-112.00   9.00     0.19564    
-112.00  10.00     0.30472    
-112.00  11.00     0.34294    
-112.00  12.00     0.31606    
-112.00  13.00     0.24520    
-112.00  14.00     0.15953    
-112.00  15.00     0.87181E-01
-112.00  16.00     0.47258E-01
-112.00  17.00     0.45287E-01
-112.00  18.00     0.73143E-01
-112.00  19.00     0.11320    
-112.00  20.00     0.14508    
-112.00  21.00     0.15265    
-112.00  22.00     0.12910    
-112.00  23.00     0.78482E-01
-112.00  24.00     0.13533E-01
-112.00  25.00    -0.49375E-01
-112.00  26.00    -0.96240E-01
-112.00  27.00    -0.12040    
-112.00  28.00    -0.12482    
-112.00  29.00    -0.12095    
-112.00  30.00    -0.12481    
-112.00  31.00    -0.15139    
-112.00  32.00    -0.20951    
-112.00  33.00    -0.29857    
-112.00  34.00    -0.40825    
-112.00  35.00    -0.52106    
-112.00  36.00    -0.61695    
-112.00  37.00    -0.67826    
-112.00  38.00    -0.69371    
-112.00  39.00    -0.66023    
-112.00  40.00    -0.58248    
-112.00  41.00    -0.47042    
-112.00  42.00    -0.33636    
-112.00  43.00    -0.19184    
-112.00  44.00    -0.46449E-01
-112.00  45.00     0.92580E-01
-112.00  46.00     0.21940    
-112.00  47.00     0.32802    
-112.00  48.00     0.41226    
-112.00  49.00     0.46607    
-112.00  50.00     0.48497    
-112.00  51.00     0.46835    
-112.00  52.00     0.42088    
-112.00  53.00     0.35219    
-112.00  54.00     0.27557    
-112.00  55.00     0.20427    
-112.00  56.00     0.14781    
-112.00  57.00     0.10887    
-112.00  58.00     0.82198E-01
-112.00  59.00     0.56434E-01
-112.00  60.00     0.17903E-01
-112.00  61.00    -0.43737E-01
-112.00  62.00    -0.13110    
-112.00  63.00    -0.23596    
-112.00  64.00    -0.34065    
-112.00  65.00    -0.42183    
-112.00  66.00    -0.45730    
-112.00  67.00    -0.43270    
-112.00  68.00    -0.34725    
-112.00  69.00    -0.21497    
-112.00  70.00    -0.61821E-01
-112.00  71.00     0.80537E-01
-112.00  72.00     0.18344    
-112.00  73.00     0.22904    
-112.00  74.00     0.21444    
-112.00  75.00     0.15255    
-112.00  76.00     0.68203E-01
-112.00  77.00    -0.11290E-01
-112.00  78.00    -0.62982E-01
-112.00  79.00    -0.75747E-01
-112.00  80.00    -0.54390E-01
-112.00  81.00    -0.16013E-01
-112.00  82.00     0.15110E-01
-112.00  83.00     0.14723E-01
-112.00  84.00    -0.30549E-01
-112.00  85.00    -0.12131    
-112.00  86.00    -0.24602    
-112.00  87.00    -0.38051    
-112.00  88.00    -0.49800    
-112.00  89.00    -0.57608    
-111.00 -89.00    -0.14039    
-111.00 -88.00    -0.16689    
-111.00 -87.00    -0.21360    
-111.00 -86.00    -0.26988    
-111.00 -85.00    -0.32565    
-111.00 -84.00    -0.37802    
-111.00 -83.00    -0.42389    
-111.00 -82.00    -0.45940    
-111.00 -81.00    -0.48787    
-111.00 -80.00    -0.50665    
-111.00 -79.00    -0.51223    
-111.00 -78.00    -0.49994    
-111.00 -77.00    -0.46474    
-111.00 -76.00    -0.40632    
-111.00 -75.00    -0.32864    
-111.00 -74.00    -0.24159    
-111.00 -73.00    -0.15822    
-111.00 -72.00    -0.90933E-01
-111.00 -71.00    -0.46319E-01
-111.00 -70.00    -0.23185E-01
-111.00 -69.00    -0.11382E-01
-111.00 -68.00     0.56426E-02
-111.00 -67.00     0.45208E-01
-111.00 -66.00     0.11882    
-111.00 -65.00     0.22628    
-111.00 -64.00     0.35328    
-111.00 -63.00     0.47341    
-111.00 -62.00     0.55531    
-111.00 -61.00     0.57054    
-111.00 -60.00     0.50508    
-111.00 -59.00     0.36437    
-111.00 -58.00     0.17509    
-111.00 -57.00    -0.20550E-01
-111.00 -56.00    -0.17506    
-111.00 -55.00    -0.24951    
-111.00 -54.00    -0.22519    
-111.00 -53.00    -0.11099    
-111.00 -52.00     0.56905E-01
-111.00 -51.00     0.22356    
-111.00 -50.00     0.32947    
-111.00 -49.00     0.32745    
-111.00 -48.00     0.19645    
-111.00 -47.00    -0.50656E-01
-111.00 -46.00    -0.36822    
-111.00 -45.00    -0.68839    
-111.00 -44.00    -0.93771    
-111.00 -43.00     -1.0559    
-111.00 -42.00     -1.0113    
-111.00 -41.00    -0.80886    
-111.00 -40.00    -0.48928    
-111.00 -39.00    -0.11813    
-111.00 -38.00     0.23049    
-111.00 -37.00     0.49222    
-111.00 -36.00     0.62713    
-111.00 -35.00     0.62745    
-111.00 -34.00     0.51622    
-111.00 -33.00     0.33796    
-111.00 -32.00     0.14433    
-111.00 -31.00    -0.20869E-01
-111.00 -30.00    -0.13303    
-111.00 -29.00    -0.19130    
-111.00 -28.00    -0.21544    
-111.00 -27.00    -0.23630    
-111.00 -26.00    -0.28321    
-111.00 -25.00    -0.37225    
-111.00 -24.00    -0.49911    
-111.00 -23.00    -0.63878    
-111.00 -22.00    -0.75220    
-111.00 -21.00    -0.79786    
-111.00 -20.00    -0.74495    
-111.00 -19.00    -0.58407    
-111.00 -18.00    -0.33229    
-111.00 -17.00    -0.30942E-01
-111.00 -16.00     0.26347    
-111.00 -15.00     0.49275    
-111.00 -14.00     0.61134    
-111.00 -13.00     0.59752    
-111.00 -12.00     0.45862    
-111.00 -11.00     0.22866    
-111.00 -10.00    -0.40664E-01
-111.00  -9.00    -0.29321    
-111.00  -8.00    -0.48231    
-111.00  -7.00    -0.58160    
-111.00  -6.00    -0.59005    
-111.00  -5.00    -0.52995    
-111.00  -4.00    -0.43889    
-111.00  -3.00    -0.35792    
-111.00  -2.00    -0.31949    
-111.00  -1.00    -0.33837    
-111.00   0.00    -0.40810    
-111.00   1.00    -0.50360    
-111.00   2.00    -0.58916    
-111.00   3.00    -0.62923    
-111.00   4.00    -0.59893    
-111.00   5.00    -0.49133    
-111.00   6.00    -0.31945    
-111.00   7.00    -0.11266    
-111.00   8.00     0.91336E-01
-111.00   9.00     0.25657    
-111.00  10.00     0.35799    
-111.00  11.00     0.38721    
-111.00  12.00     0.35339    
-111.00  13.00     0.27923    
-111.00  14.00     0.19357    
-111.00  15.00     0.12284    
-111.00  16.00     0.84025E-01
-111.00  17.00     0.80997E-01
-111.00  18.00     0.10515    
-111.00  19.00     0.13976    
-111.00  20.00     0.16649    
-111.00  21.00     0.17179    
-111.00  22.00     0.15121    
-111.00  23.00     0.11025    
-111.00  24.00     0.61706E-01
-111.00  25.00     0.20601E-01
-111.00  26.00    -0.16654E-02
-111.00  27.00    -0.17743E-02
-111.00  28.00     0.13844E-01
-111.00  29.00     0.30709E-01
-111.00  30.00     0.30805E-01
-111.00  31.00    -0.15731E-02
-111.00  32.00    -0.74478E-01
-111.00  33.00    -0.18518    
-111.00  34.00    -0.32015    
-111.00  35.00    -0.45816    
-111.00  36.00    -0.57543    
-111.00  37.00    -0.65126    
-111.00  38.00    -0.67262    
-111.00  39.00    -0.63627    
-111.00  40.00    -0.54836    
-111.00  41.00    -0.42166    
-111.00  42.00    -0.27195    
-111.00  43.00    -0.11424    
-111.00  44.00     0.39360E-01
-111.00  45.00     0.18046    
-111.00  46.00     0.30362    
-111.00  47.00     0.40462    
-111.00  48.00     0.47980    
-111.00  49.00     0.52557    
-111.00  50.00     0.53908    
-111.00  51.00     0.52024    
-111.00  52.00     0.47305    
-111.00  53.00     0.40558    
-111.00  54.00     0.32943    
-111.00  55.00     0.25664    
-111.00  56.00     0.19665    
-111.00  57.00     0.15316    
-111.00  58.00     0.12280    
-111.00  59.00     0.96290E-01
-111.00  60.00     0.61462E-01
-111.00  61.00     0.82799E-02
-111.00  62.00    -0.67120E-01
-111.00  63.00    -0.15895    
-111.00  64.00    -0.25274    
-111.00  65.00    -0.32812    
-111.00  66.00    -0.36477    
-111.00  67.00    -0.34864    
-111.00  68.00    -0.27745    
-111.00  69.00    -0.16225    
-111.00  70.00    -0.25689E-01
-111.00  71.00     0.10355    
-111.00  72.00     0.19896    
-111.00  73.00     0.24274    
-111.00  74.00     0.23090    
-111.00  75.00     0.17397    
-111.00  76.00     0.94340E-01
-111.00  77.00     0.16997E-01
-111.00  78.00    -0.36164E-01
-111.00  79.00    -0.54019E-01
-111.00  80.00    -0.40103E-01
-111.00  81.00    -0.99366E-02
-111.00  82.00     0.14033E-01
-111.00  83.00     0.86786E-02
-111.00  84.00    -0.38938E-01
-111.00  85.00    -0.12950    
-111.00  86.00    -0.25262    
-111.00  87.00    -0.38496    
-111.00  88.00    -0.50047    
-111.00  89.00    -0.57712    
-110.00 -89.00    -0.13835    
-110.00 -88.00    -0.16299    
-110.00 -87.00    -0.20879    
-110.00 -86.00    -0.26561    
-110.00 -85.00    -0.32316    
-110.00 -84.00    -0.37777    
-110.00 -83.00    -0.42552    
-110.00 -82.00    -0.46235    
-110.00 -81.00    -0.49039    
-110.00 -80.00    -0.50725    
-110.00 -79.00    -0.51019    
-110.00 -78.00    -0.49538    
-110.00 -77.00    -0.45888    
-110.00 -76.00    -0.40117    
-110.00 -75.00    -0.32658    
-110.00 -74.00    -0.24459    
-110.00 -73.00    -0.16733    
-110.00 -72.00    -0.10591    
-110.00 -71.00    -0.65352E-01
-110.00 -70.00    -0.43146E-01
-110.00 -69.00    -0.28600E-01
-110.00 -68.00    -0.53767E-02
-110.00 -67.00     0.42676E-01
-110.00 -66.00     0.12528    
-110.00 -65.00     0.23979    
-110.00 -64.00     0.37031    
-110.00 -63.00     0.48905    
-110.00 -62.00     0.56477    
-110.00 -61.00     0.57040    
-110.00 -60.00     0.49439    
-110.00 -59.00     0.34513    
-110.00 -58.00     0.15193    
-110.00 -57.00    -0.41586E-01
-110.00 -56.00    -0.18820    
-110.00 -55.00    -0.25120    
-110.00 -54.00    -0.21553    
-110.00 -53.00    -0.94374E-01
-110.00 -52.00     0.72613E-01
-110.00 -51.00     0.22882    
-110.00 -50.00     0.31562    
-110.00 -49.00     0.28961    
-110.00 -48.00     0.13531    
-110.00 -47.00    -0.12819    
-110.00 -46.00    -0.45009    
-110.00 -45.00    -0.76007    
-110.00 -44.00    -0.98583    
-110.00 -43.00     -1.0718    
-110.00 -42.00    -0.99331    
-110.00 -41.00    -0.76335    
-110.00 -40.00    -0.42878    
-110.00 -39.00    -0.58221E-01
-110.00 -38.00     0.27542    
-110.00 -37.00     0.51289    
-110.00 -36.00     0.62189    
-110.00 -35.00     0.60257    
-110.00 -34.00     0.48382    
-110.00 -33.00     0.31222    
-110.00 -32.00     0.13697    
-110.00 -31.00    -0.44138E-02
-110.00 -30.00    -0.95577E-01
-110.00 -29.00    -0.14340    
-110.00 -28.00    -0.17251    
-110.00 -27.00    -0.21418    
-110.00 -26.00    -0.29353    
-110.00 -25.00    -0.41897    
-110.00 -24.00    -0.57729    
-110.00 -23.00    -0.73593    
-110.00 -22.00    -0.85192    
-110.00 -21.00    -0.88449    
-110.00 -20.00    -0.80796    
-110.00 -19.00    -0.62077    
-110.00 -18.00    -0.34814    
-110.00 -17.00    -0.37278E-01
-110.00 -16.00     0.25341    
-110.00 -15.00     0.46831    
-110.00 -14.00     0.56798    
-110.00 -13.00     0.53830    
-110.00 -12.00     0.39309    
-110.00 -11.00     0.16960    
-110.00 -10.00    -0.81700E-01
-110.00  -9.00    -0.31008    
-110.00  -8.00    -0.47690    
-110.00  -7.00    -0.56398    
-110.00  -6.00    -0.57604    
-110.00  -5.00    -0.53685    
-110.00  -4.00    -0.48052    
-110.00  -3.00    -0.44051    
-110.00  -2.00    -0.43953    
-110.00  -1.00    -0.48312    
-110.00   0.00    -0.55853    
-110.00   1.00    -0.63895    
-110.00   2.00    -0.69181    
-110.00   3.00    -0.68855    
-110.00   4.00    -0.61319    
-110.00   5.00    -0.46719    
-110.00   6.00    -0.26945    
-110.00   7.00    -0.51502E-01
-110.00   8.00     0.15062    
-110.00   9.00     0.30545    
-110.00  10.00     0.39367    
-110.00  11.00     0.41204    
-110.00  12.00     0.37296    
-110.00  13.00     0.29979    
-110.00  14.00     0.21965    
-110.00  15.00     0.15583    
-110.00  16.00     0.12193    
-110.00  17.00     0.11943    
-110.00  18.00     0.13907    
-110.00  19.00     0.16539    
-110.00  20.00     0.18281    
-110.00  21.00     0.18121    
-110.00  22.00     0.15925    
-110.00  23.00     0.12439    
-110.00  24.00     0.89840E-01
-110.00  25.00     0.69299E-01
-110.00  26.00     0.71530E-01
-110.00  27.00     0.96441E-01
-110.00  28.00     0.13410    
-110.00  29.00     0.16703    
-110.00  30.00     0.17523    
-110.00  31.00     0.14224    
-110.00  32.00     0.60586E-01
-110.00  33.00    -0.65236E-01
-110.00  34.00    -0.21901    
-110.00  35.00    -0.37631    
-110.00  36.00    -0.51015    
-110.00  37.00    -0.59720    
-110.00  38.00    -0.62281    
-110.00  39.00    -0.58353    
-110.00  40.00    -0.48672    
-110.00  41.00    -0.34769    
-110.00  42.00    -0.18531    
-110.00  43.00    -0.17845E-01
-110.00  44.00     0.14020    
-110.00  45.00     0.27928    
-110.00  46.00     0.39437    
-110.00  47.00     0.48313    
-110.00  48.00     0.54454    
-110.00  49.00     0.57783    
-110.00  50.00     0.58222    
-110.00  51.00     0.55866    
-110.00  52.00     0.51082    
-110.00  53.00     0.44550    
-110.00  54.00     0.37253    
-110.00  55.00     0.30247    
-110.00  56.00     0.24411    
-110.00  57.00     0.20148    
-110.00  58.00     0.17240    
-110.00  59.00     0.14908    
-110.00  60.00     0.12049    
-110.00  61.00     0.76750E-01
-110.00  62.00     0.12861E-01
-110.00  63.00    -0.67538E-01
-110.00  64.00    -0.15278    
-110.00  65.00    -0.22502    
-110.00  66.00    -0.26547    
-110.00  67.00    -0.26007    
-110.00  68.00    -0.20492    
-110.00  69.00    -0.10803    
-110.00  70.00     0.11239E-01
-110.00  71.00     0.12709    
-110.00  72.00     0.21501    
-110.00  73.00     0.25718    
-110.00  74.00     0.24836    
-110.00  75.00     0.19667    
-110.00  76.00     0.12187    
-110.00  77.00     0.46689E-01
-110.00  78.00    -0.80715E-02
-110.00  79.00    -0.31262E-01
-110.00  80.00    -0.25113E-01
-110.00  81.00    -0.34955E-02
-110.00  82.00     0.13023E-01
-110.00  83.00     0.25230E-02
-110.00  84.00    -0.47520E-01
-110.00  85.00    -0.13795    
-110.00  86.00    -0.25943    
-110.00  87.00    -0.38955    
-110.00  88.00    -0.50300    
-110.00  89.00    -0.57817    
-109.00 -89.00    -0.13631    
-109.00 -88.00    -0.15906    
-109.00 -87.00    -0.20388    
-109.00 -86.00    -0.26112    
-109.00 -85.00    -0.32033    
-109.00 -84.00    -0.37703    
-109.00 -83.00    -0.42646    
-109.00 -82.00    -0.46455    
-109.00 -81.00    -0.49220    
-109.00 -80.00    -0.50733    
-109.00 -79.00    -0.50796    
-109.00 -78.00    -0.49112    
-109.00 -77.00    -0.45388    
-109.00 -76.00    -0.39742    
-109.00 -75.00    -0.32632    
-109.00 -74.00    -0.24956    
-109.00 -73.00    -0.17840    
-109.00 -72.00    -0.12272    
-109.00 -71.00    -0.86248E-01
-109.00 -70.00    -0.65431E-01
-109.00 -69.00    -0.49307E-01
-109.00 -68.00    -0.21962E-01
-109.00 -67.00     0.31583E-01
-109.00 -66.00     0.11943    
-109.00 -65.00     0.23699    
-109.00 -64.00     0.36730    
-109.00 -63.00     0.48175    
-109.00 -62.00     0.54966    
-109.00 -61.00     0.54558    
-109.00 -60.00     0.46027    
-109.00 -59.00     0.30462    
-109.00 -58.00     0.10989    
-109.00 -57.00    -0.79503E-01
-109.00 -56.00    -0.21719    
-109.00 -55.00    -0.26879    
-109.00 -54.00    -0.22266    
-109.00 -53.00    -0.95532E-01
-109.00 -52.00     0.70434E-01
-109.00 -51.00     0.21796    
-109.00 -50.00     0.29003    
-109.00 -49.00     0.24721    
-109.00 -48.00     0.79189E-01
-109.00 -47.00    -0.18981    
-109.00 -46.00    -0.50547    
-109.00 -45.00    -0.79681    
-109.00 -44.00    -0.99434    
-109.00 -43.00     -1.0483    
-109.00 -42.00    -0.94161    
-109.00 -41.00    -0.69461    
-109.00 -40.00    -0.35931    
-109.00 -39.00    -0.56148E-02
-109.00 -38.00     0.29670    
-109.00 -37.00     0.49531    
-109.00 -36.00     0.56701    
-109.00 -35.00     0.52077    
-109.00 -34.00     0.39172    
-109.00 -33.00     0.22839    
-109.00 -32.00     0.77103E-01
-109.00 -31.00    -0.31481E-01
-109.00 -30.00    -0.89901E-01
-109.00 -29.00    -0.11347    
-109.00 -28.00    -0.13242    
-109.00 -27.00    -0.17943    
-109.00 -26.00    -0.27655    
-109.00 -25.00    -0.42583    
-109.00 -24.00    -0.60653    
-109.00 -23.00    -0.77979    
-109.00 -22.00    -0.89941    
-109.00 -21.00    -0.92536    
-109.00 -20.00    -0.83621    
-109.00 -19.00    -0.63653    
-109.00 -18.00    -0.35728    
-109.00 -17.00    -0.48987E-01
-109.00 -16.00     0.23038    
-109.00 -15.00     0.42938    
-109.00 -14.00     0.51513    
-109.00 -13.00     0.48036    
-109.00 -12.00     0.34354    
-109.00 -11.00     0.14262    
-109.00 -10.00    -0.75814E-01
-109.00  -9.00    -0.26869    
-109.00  -8.00    -0.40673    
-109.00  -7.00    -0.48015    
-109.00  -6.00    -0.49854    
-109.00  -5.00    -0.48549    
-109.00  -4.00    -0.46968    
-109.00  -3.00    -0.47523    
-109.00  -2.00    -0.51410    
-109.00  -1.00    -0.58250    
-109.00   0.00    -0.66221    
-109.00   1.00    -0.72615    
-109.00   2.00    -0.74655    
-109.00   3.00    -0.70324    
-109.00   4.00    -0.58982    
-109.00   5.00    -0.41593    
-109.00   6.00    -0.20524    
-109.00   7.00     0.10326E-01
-109.00   8.00     0.19835    
-109.00   9.00     0.33359    
-109.00  10.00     0.40356    
-109.00  11.00     0.41047    
-109.00  12.00     0.36936    
-109.00  13.00     0.30302    
-109.00  14.00     0.23530    
-109.00  15.00     0.18479    
-109.00  16.00     0.16050    
-109.00  17.00     0.16084    
-109.00  18.00     0.17577    
-109.00  19.00     0.19141    
-109.00  20.00     0.19553    
-109.00  21.00     0.18207    
-109.00  22.00     0.15335    
-109.00  23.00     0.11924    
-109.00  24.00     0.93543E-01
-109.00  25.00     0.88843E-01
-109.00  26.00     0.11148    
-109.00  27.00     0.15828    
-109.00  28.00     0.21622    
-109.00  29.00     0.26534    
-109.00  30.00     0.28398    
-109.00  31.00     0.25513    
-109.00  32.00     0.17171    
-109.00  33.00     0.39463E-01
-109.00  34.00    -0.12351    
-109.00  35.00    -0.29055    
-109.00  36.00    -0.43245    
-109.00  37.00    -0.52400    
-109.00  38.00    -0.54939    
-109.00  39.00    -0.50508    
-109.00  40.00    -0.39947    
-109.00  41.00    -0.24994    
-109.00  42.00    -0.78003E-01
-109.00  43.00     0.95263E-01
-109.00  44.00     0.25330    
-109.00  45.00     0.38567    
-109.00  46.00     0.48781    
-109.00  47.00     0.55944    
-109.00  48.00     0.60237    
-109.00  49.00     0.61891    
-109.00  50.00     0.61079    
-109.00  51.00     0.58040    
-109.00  52.00     0.53143    
-109.00  53.00     0.46963    
-109.00  54.00     0.40296    
-109.00  55.00     0.34022    
-109.00  56.00     0.28896    
-109.00  57.00     0.25284    
-109.00  58.00     0.23019    
-109.00  59.00     0.21408    
-109.00  60.00     0.19425    
-109.00  61.00     0.16082    
-109.00  62.00     0.10780    
-109.00  63.00     0.36984E-01
-109.00  64.00    -0.42290E-01
-109.00  65.00    -0.11425    
-109.00  66.00    -0.16120    
-109.00  67.00    -0.16879    
-109.00  68.00    -0.13134    
-109.00  69.00    -0.53798E-01
-109.00  70.00     0.47726E-01
-109.00  71.00     0.15019    
-109.00  72.00     0.23085    
-109.00  73.00     0.27182    
-109.00  74.00     0.26641    
-109.00  75.00     0.22030    
-109.00  76.00     0.15051    
-109.00  77.00     0.77531E-01
-109.00  78.00     0.21065E-01
-109.00  79.00    -0.76718E-02
-109.00  80.00    -0.95733E-02
-109.00  81.00     0.32071E-02
-109.00  82.00     0.12023E-01
-109.00  83.00    -0.37691E-02
-109.00  84.00    -0.56295E-01
-109.00  85.00    -0.14666    
-109.00  86.00    -0.26645    
-109.00  87.00    -0.39425    
-109.00  88.00    -0.50558    
-109.00  89.00    -0.57924    
-108.00 -89.00    -0.13426    
-108.00 -88.00    -0.15510    
-108.00 -87.00    -0.19886    
-108.00 -86.00    -0.25640    
-108.00 -85.00    -0.31714    
-108.00 -84.00    -0.37578    
-108.00 -83.00    -0.42673    
-108.00 -82.00    -0.46602    
-108.00 -81.00    -0.49330    
-108.00 -80.00    -0.50687    
-108.00 -79.00    -0.50553    
-108.00 -78.00    -0.48712    
-108.00 -77.00    -0.44962    
-108.00 -76.00    -0.39485    
-108.00 -75.00    -0.32750    
-108.00 -74.00    -0.25604    
-108.00 -73.00    -0.19084    
-108.00 -72.00    -0.14066    
-108.00 -71.00    -0.10828    
-108.00 -70.00    -0.89354E-01
-108.00 -69.00    -0.72939E-01
-108.00 -68.00    -0.43742E-01
-108.00 -67.00     0.12066E-01
-108.00 -66.00     0.10116    
-108.00 -65.00     0.21759    
-108.00 -64.00     0.34375    
-108.00 -63.00     0.45092    
-108.00 -62.00     0.50940    
-108.00 -61.00     0.49550    
-108.00 -60.00     0.40216    
-108.00 -59.00     0.24227    
-108.00 -58.00     0.48380E-01
-108.00 -57.00    -0.13495    
-108.00 -56.00    -0.26266    
-108.00 -55.00    -0.30275    
-108.00 -54.00    -0.24661    
-108.00 -53.00    -0.11376    
-108.00 -52.00     0.52125E-01
-108.00 -51.00     0.19403    
-108.00 -50.00     0.25721    
-108.00 -49.00     0.20618    
-108.00 -48.00     0.35206E-01
-108.00 -47.00    -0.22757    
-108.00 -46.00    -0.52599    
-108.00 -45.00    -0.79019    
-108.00 -44.00    -0.95501    
-108.00 -43.00    -0.97743    
-108.00 -42.00    -0.84829    
-108.00 -41.00    -0.59462    
-108.00 -40.00    -0.27243    
-108.00 -39.00     0.48732E-01
-108.00 -38.00     0.30391    
-108.00 -37.00     0.44930    
-108.00 -36.00     0.47199    
-108.00 -35.00     0.39058    
-108.00 -34.00     0.24689    
-108.00 -33.00     0.91508E-01
-108.00 -32.00    -0.32134E-01
-108.00 -31.00    -0.10038    
-108.00 -30.00    -0.11495    
-108.00 -29.00    -0.10004    
-108.00 -28.00    -0.92351E-01
-108.00 -27.00    -0.12710    
-108.00 -26.00    -0.22487    
-108.00 -25.00    -0.38322    
-108.00 -24.00    -0.57570    
-108.00 -23.00    -0.75857    
-108.00 -22.00    -0.88313    
-108.00 -21.00    -0.90985    
-108.00 -20.00    -0.82024    
-108.00 -19.00    -0.62274    
-108.00 -18.00    -0.35133    
-108.00 -17.00    -0.57037E-01
-108.00 -16.00     0.20480    
-108.00 -15.00     0.38810    
-108.00 -14.00     0.46654    
-108.00 -13.00     0.43833    
-108.00 -12.00     0.32439    
-108.00 -11.00     0.16068    
-108.00 -10.00    -0.12566E-01
-108.00  -9.00    -0.16172    
-108.00  -8.00    -0.26759    
-108.00  -7.00    -0.32832    
-108.00  -6.00    -0.35703    
-108.00  -5.00    -0.37524    
-108.00  -4.00    -0.40440    
-108.00  -3.00    -0.45805    
-108.00  -2.00    -0.53700    
-108.00  -1.00    -0.62871    
-108.00   0.00    -0.71085    
-108.00   1.00    -0.75782    
-108.00   2.00    -0.74827    
-108.00   3.00    -0.67146    
-108.00   4.00    -0.53067    
-108.00   5.00    -0.34289    
-108.00   6.00    -0.13489    
-108.00   7.00     0.63078E-01
-108.00   8.00     0.22429    
-108.00   9.00     0.33134    
-108.00  10.00     0.37936    
-108.00  11.00     0.37591    
-108.00  12.00     0.33778    
-108.00  13.00     0.28574    
-108.00  14.00     0.23874    
-108.00  15.00     0.20916    
-108.00  16.00     0.20039    
-108.00  17.00     0.20718    
-108.00  18.00     0.21861    
-108.00  19.00     0.22266    
-108.00  20.00     0.21080    
-108.00  21.00     0.18142    
-108.00  22.00     0.14076    
-108.00  23.00     0.10121    
-108.00  24.00     0.77305E-01
-108.00  25.00     0.80770E-01
-108.00  26.00     0.11596    
-108.00  27.00     0.17730    
-108.00  28.00     0.24959    
-108.00  29.00     0.31126    
-108.00  30.00     0.33982    
-108.00  31.00     0.31807    
-108.00  32.00     0.23927    
-108.00  33.00     0.10985    
-108.00  34.00    -0.51222E-01
-108.00  35.00    -0.21635    
-108.00  36.00    -0.35538    
-108.00  37.00    -0.44232    
-108.00  38.00    -0.46095    
-108.00  39.00    -0.40789    
-108.00  40.00    -0.29246    
-108.00  41.00    -0.13364    
-108.00  42.00     0.44947E-01
-108.00  43.00     0.22008    
-108.00  44.00     0.37362    
-108.00  45.00     0.49455    
-108.00  46.00     0.57905    
-108.00  47.00     0.62903    
-108.00  48.00     0.64929    
-108.00  49.00     0.64548    
-108.00  50.00     0.62214    
-108.00  51.00     0.58346    
-108.00  52.00     0.53343    
-108.00  53.00     0.47689    
-108.00  54.00     0.41991    
-108.00  55.00     0.36919    
-108.00  56.00     0.33050    
-108.00  57.00     0.30650    
-108.00  58.00     0.29529    
-108.00  59.00     0.29024    
-108.00  60.00     0.28147    
-108.00  61.00     0.25899    
-108.00  62.00     0.21596    
-108.00  63.00     0.15270    
-108.00  64.00     0.76653E-01
-108.00  65.00     0.20512E-02
-108.00  66.00    -0.54122E-01
-108.00  67.00    -0.76857E-01
-108.00  68.00    -0.58564E-01
-108.00  69.00    -0.11254E-02
-108.00  70.00     0.82484E-01
-108.00  71.00     0.17186    
-108.00  72.00     0.24574    
-108.00  73.00     0.28608    
-108.00  74.00     0.28464    
-108.00  75.00     0.24453    
-108.00  76.00     0.17997    
-108.00  77.00     0.10926    
-108.00  78.00     0.51007E-01
-108.00  79.00     0.16549E-01
-108.00  80.00     0.63564E-02
-108.00  81.00     0.10065E-01
-108.00  82.00     0.10972E-01
-108.00  83.00    -0.10224E-01
-108.00  84.00    -0.65265E-01
-108.00  85.00    -0.15562    
-108.00  86.00    -0.27366    
-108.00  87.00    -0.39907    
-108.00  88.00    -0.50820    
-108.00  89.00    -0.58031    
-107.00 -89.00    -0.13220    
-107.00 -88.00    -0.15109    
-107.00 -87.00    -0.19373    
-107.00 -86.00    -0.25144    
-107.00 -85.00    -0.31361    
-107.00 -84.00    -0.37405    
-107.00 -83.00    -0.42634    
-107.00 -82.00    -0.46676    
-107.00 -81.00    -0.49371    
-107.00 -80.00    -0.50590    
-107.00 -79.00    -0.50290    
-107.00 -78.00    -0.48332    
-107.00 -77.00    -0.44599    
-107.00 -76.00    -0.39322    
-107.00 -75.00    -0.32978    
-107.00 -74.00    -0.26351    
-107.00 -73.00    -0.20402    
-107.00 -72.00    -0.15900    
-107.00 -71.00    -0.13061    
-107.00 -70.00    -0.11405    
-107.00 -69.00    -0.98655E-01
-107.00 -68.00    -0.69930E-01
-107.00 -67.00    -0.15154E-01
-107.00 -66.00     0.71162E-01
-107.00 -65.00     0.18228    
-107.00 -64.00     0.30042    
-107.00 -63.00     0.39745    
-107.00 -62.00     0.44503    
-107.00 -61.00     0.42141    
-107.00 -60.00     0.32144    
-107.00 -59.00     0.15958    
-107.00 -58.00    -0.31052E-01
-107.00 -57.00    -0.20635    
-107.00 -56.00    -0.32298    
-107.00 -55.00    -0.35128    
-107.00 -54.00    -0.28528    
-107.00 -53.00    -0.14646    
-107.00 -52.00     0.20967E-01
-107.00 -51.00     0.16108    
-107.00 -50.00     0.22194    
-107.00 -49.00     0.17183    
-107.00 -48.00     0.89066E-02
-107.00 -47.00    -0.23609    
-107.00 -46.00    -0.50679    
-107.00 -45.00    -0.73607    
-107.00 -44.00    -0.86441    
-107.00 -43.00    -0.85628    
-107.00 -42.00    -0.71032    
-107.00 -41.00    -0.45970    
-107.00 -40.00    -0.16314    
-107.00 -39.00     0.11153    
-107.00 -38.00     0.30562    
-107.00 -37.00     0.38502    
-107.00 -36.00     0.34797    
-107.00 -35.00     0.22328    
-107.00 -34.00     0.59781E-01
-107.00 -33.00    -0.89580E-01
-107.00 -32.00    -0.18402    
-107.00 -31.00    -0.20663    
-107.00 -30.00    -0.16816    
-107.00 -29.00    -0.10193    
-107.00 -28.00    -0.51680E-01
-107.00 -27.00    -0.56471E-01
-107.00 -26.00    -0.13720    
-107.00 -25.00    -0.28903    
-107.00 -24.00    -0.48188    
-107.00 -23.00    -0.66878    
-107.00 -22.00    -0.79927    
-107.00 -21.00    -0.83397    
-107.00 -20.00    -0.75582    
-107.00 -19.00    -0.57475    
-107.00 -18.00    -0.32492    
-107.00 -17.00    -0.55231E-01
-107.00 -16.00     0.18359    
-107.00 -15.00     0.35161    
-107.00 -14.00     0.42856    
-107.00 -13.00     0.41657    
-107.00 -12.00     0.33665    
-107.00 -11.00     0.22034    
-107.00 -10.00     0.99517E-01
-107.00  -9.00    -0.26939E-02
-107.00  -8.00    -0.77106E-01
-107.00  -7.00    -0.12875    
-107.00  -6.00    -0.17252    
-107.00  -5.00    -0.22603    
-107.00  -4.00    -0.30198    
-107.00  -3.00    -0.40271    
-107.00  -2.00    -0.51828    
-107.00  -1.00    -0.62870    
-107.00   0.00    -0.70942    
-107.00   1.00    -0.73825    
-107.00   2.00    -0.70175    
-107.00   3.00    -0.59925    
-107.00   4.00    -0.44333    
-107.00   5.00    -0.25690    
-107.00   6.00    -0.67807E-01
-107.00   7.00     0.97685E-01
-107.00   8.00     0.22054    
-107.00   9.00     0.29252    
-107.00  10.00     0.31685    
-107.00  11.00     0.30600    
-107.00  12.00     0.27735    
-107.00  13.00     0.24816    
-107.00  14.00     0.23094    
-107.00  15.00     0.23062    
-107.00  16.00     0.24412    
-107.00  17.00     0.26218    
-107.00  18.00     0.27301    
-107.00  19.00     0.26654    
-107.00  20.00     0.23816    
-107.00  21.00     0.19067    
-107.00  22.00     0.13414    
-107.00  23.00     0.83295E-01
-107.00  24.00     0.53367E-01
-107.00  25.00     0.55406E-01
-107.00  26.00     0.92387E-01
-107.00  27.00     0.15732    
-107.00  28.00     0.23407    
-107.00  29.00     0.30079    
-107.00  30.00     0.33526    
-107.00  31.00     0.32079    
-107.00  32.00     0.25109    
-107.00  33.00     0.13268    
-107.00  34.00    -0.15706E-01
-107.00  35.00    -0.16695    
-107.00  36.00    -0.29145    
-107.00  37.00    -0.36373    
-107.00  38.00    -0.36809    
-107.00  39.00    -0.30170    
-107.00  40.00    -0.17470    
-107.00  41.00    -0.72778E-02
-107.00  42.00     0.17552    
-107.00  43.00     0.34902    
-107.00  44.00     0.49406    
-107.00  45.00     0.59948    
-107.00  46.00     0.66246    
-107.00  47.00     0.68723    
-107.00  48.00     0.68173    
-107.00  49.00     0.65502    
-107.00  50.00     0.61478    
-107.00  51.00     0.56718    
-107.00  52.00     0.51677    
-107.00  53.00     0.46757    
-107.00  54.00     0.42373    
-107.00  55.00     0.38958    
-107.00  56.00     0.36864    
-107.00  57.00     0.36191    
-107.00  58.00     0.36671    
-107.00  59.00     0.37613    
-107.00  60.00     0.38035    
-107.00  61.00     0.36914    
-107.00  62.00     0.33499    
-107.00  63.00     0.27706    
-107.00  64.00     0.20144    
-107.00  65.00     0.12129    
-107.00  66.00     0.53322E-01
-107.00  67.00     0.13509E-01
-107.00  68.00     0.11473E-01
-107.00  69.00     0.48357E-01
-107.00  70.00     0.11421    
-107.00  71.00     0.19111    
-107.00  72.00     0.25892    
-107.00  73.00     0.29943    
-107.00  74.00     0.30262    
-107.00  75.00     0.26901    
-107.00  76.00     0.20994    
-107.00  77.00     0.14160    
-107.00  78.00     0.81510E-01
-107.00  79.00     0.41194E-01
-107.00  80.00     0.22515E-01
-107.00  81.00     0.16969E-01
-107.00  82.00     0.98092E-02
-107.00  83.00    -0.16872E-01
-107.00  84.00    -0.74436E-01
-107.00  85.00    -0.16483    
-107.00  86.00    -0.28106    
-107.00  87.00    -0.40400    
-107.00  88.00    -0.51088    
-107.00  89.00    -0.58140    
-106.00 -89.00    -0.13014    
-106.00 -88.00    -0.14705    
-106.00 -87.00    -0.18849    
-106.00 -86.00    -0.24624    
-106.00 -85.00    -0.30971    
-106.00 -84.00    -0.37182    
-106.00 -83.00    -0.42535    
-106.00 -82.00    -0.46679    
-106.00 -81.00    -0.49343    
-106.00 -80.00    -0.50441    
-106.00 -79.00    -0.50003    
-106.00 -78.00    -0.47965    
-106.00 -77.00    -0.44282    
-106.00 -76.00    -0.39229    
-106.00 -75.00    -0.33276    
-106.00 -74.00    -0.27146    
-106.00 -73.00    -0.21725    
-106.00 -72.00    -0.17693    
-106.00 -71.00    -0.15231    
-106.00 -70.00    -0.13852    
-106.00 -69.00    -0.12537    
-106.00 -68.00    -0.99356E-01
-106.00 -67.00    -0.48800E-01
-106.00 -66.00     0.30869E-01
-106.00 -65.00     0.13272    
-106.00 -64.00     0.23925    
-106.00 -63.00     0.32363    
-106.00 -62.00     0.35922    
-106.00 -61.00     0.32632    
-106.00 -60.00     0.22145    
-106.00 -59.00     0.60083E-01
-106.00 -58.00    -0.12473    
-106.00 -57.00    -0.28995    
-106.00 -56.00    -0.39431    
-106.00 -55.00    -0.41047    
-106.00 -54.00    -0.33459    
-106.00 -53.00    -0.18930    
-106.00 -52.00    -0.18483E-01
-106.00 -51.00     0.12381    
-106.00 -50.00     0.18882    
-106.00 -49.00     0.14834    
-106.00 -48.00     0.35905E-02
-106.00 -47.00    -0.21335    
-106.00 -46.00    -0.44743    
-106.00 -45.00    -0.63568    
-106.00 -44.00    -0.72519    
-106.00 -43.00    -0.68831    
-106.00 -42.00    -0.53119    
-106.00 -41.00    -0.29233    
-106.00 -40.00    -0.31961E-01
-106.00 -39.00     0.18500    
-106.00 -38.00     0.30716    
-106.00 -37.00     0.31082    
-106.00 -36.00     0.20574    
-106.00 -35.00     0.31094E-01
-106.00 -34.00    -0.15715    
-106.00 -33.00    -0.30345    
-106.00 -32.00    -0.36919    
-106.00 -31.00    -0.34366    
-106.00 -30.00    -0.24611    
-106.00 -29.00    -0.11872    
-106.00 -28.00    -0.12684E-01
-106.00 -27.00     0.28087E-01
-106.00 -26.00    -0.19333E-01
-106.00 -25.00    -0.14985    
-106.00 -24.00    -0.33191    
-106.00 -23.00    -0.51695    
-106.00 -22.00    -0.65361    
-106.00 -21.00    -0.70230    
-106.00 -20.00    -0.64597    
-106.00 -19.00    -0.49385    
-106.00 -18.00    -0.27769    
-106.00 -17.00    -0.42002E-01
-106.00 -16.00     0.16858    
-106.00 -15.00     0.32068    
-106.00 -14.00     0.39929    
-106.00 -13.00     0.40880    
-106.00 -12.00     0.36823    
-106.00 -11.00     0.30282    
-106.00 -10.00     0.23488    
-106.00  -9.00     0.17684    
-106.00  -8.00     0.12874    
-106.00  -7.00     0.80316E-01
-106.00  -6.00     0.16830E-01
-106.00  -5.00    -0.73688E-01
-106.00  -4.00    -0.19432    
-106.00  -3.00    -0.33630    
-106.00  -2.00    -0.48012    
-106.00  -1.00    -0.60035    
-106.00   0.00    -0.67248    
-106.00   1.00    -0.67980    
-106.00   2.00    -0.61809    
-106.00   3.00    -0.49695    
-106.00   4.00    -0.33735    
-106.00   5.00    -0.16639    
-106.00   6.00    -0.10666E-01
-106.00   7.00     0.10978    
-106.00   8.00     0.18537    
-106.00   9.00     0.21803    
-106.00  10.00     0.21911    
-106.00  11.00     0.20525    
-106.00  12.00     0.19325    
-106.00  13.00     0.19539    
-106.00  14.00     0.21650    
-106.00  15.00     0.25322    
-106.00  16.00     0.29555    
-106.00  17.00     0.33016    
-106.00  18.00     0.34449    
-106.00  19.00     0.33054    
-106.00  20.00     0.28746    
-106.00  21.00     0.22217    
-106.00  22.00     0.14799    
-106.00  23.00     0.81486E-01
-106.00  24.00     0.38266E-01
-106.00  25.00     0.28818E-01
-106.00  26.00     0.55362E-01
-106.00  27.00     0.11064    
-106.00  28.00     0.17907    
-106.00  29.00     0.24010    
-106.00  30.00     0.27320    
-106.00  31.00     0.26309    
-106.00  32.00     0.20413    
-106.00  33.00     0.10253    
-106.00  34.00    -0.24287E-01
-106.00  35.00    -0.15112    
-106.00  36.00    -0.25046    
-106.00  37.00    -0.29873    
-106.00  38.00    -0.28165    
-106.00  39.00    -0.19745    
-106.00  40.00    -0.57068E-01
-106.00  41.00     0.11860    
-106.00  42.00     0.30365    
-106.00  43.00     0.47271    
-106.00  44.00     0.60618    
-106.00  45.00     0.69315    
-106.00  46.00     0.73208    
-106.00  47.00     0.72959    
-106.00  48.00     0.69673    
-106.00  49.00     0.64608    
-106.00  50.00     0.58851    
-106.00  51.00     0.53235    
-106.00  52.00     0.48283    
-106.00  53.00     0.44329    
-106.00  54.00     0.41590    
-106.00  55.00     0.40243    
-106.00  56.00     0.40374    
-106.00  57.00     0.41874    
-106.00  58.00     0.44336    
-106.00  59.00     0.46999    
-106.00  60.00     0.48855    
-106.00  61.00     0.48853    
-106.00  62.00     0.46189    
-106.00  63.00     0.40700    
-106.00  64.00     0.32903    
-106.00  65.00     0.24058    
-106.00  66.00     0.15848    
-106.00  67.00     0.99956E-01
-106.00  68.00     0.76783E-01
-106.00  69.00     0.93037E-01
-106.00  70.00     0.14165    
-106.00  71.00     0.20698    
-106.00  72.00     0.26971    
-106.00  73.00     0.31136    
-106.00  74.00     0.31996    
-106.00  75.00     0.29341    
-106.00  76.00     0.24013    
-106.00  77.00     0.17428    
-106.00  78.00     0.11233    
-106.00  79.00     0.66054E-01
-106.00  80.00     0.38740E-01
-106.00  81.00     0.23811E-01
-106.00  82.00     0.84726E-02
-106.00  83.00    -0.23742E-01
-106.00  84.00    -0.83818E-01
-106.00  85.00    -0.17428    
-106.00  86.00    -0.28863    
-106.00  87.00    -0.40904    
-106.00  88.00    -0.51360    
-106.00  89.00    -0.58249    
-105.00 -89.00    -0.12808    
-105.00 -88.00    -0.14298    
-105.00 -87.00    -0.18314    
-105.00 -86.00    -0.24082    
-105.00 -85.00    -0.30546    
-105.00 -84.00    -0.36910    
-105.00 -83.00    -0.42377    
-105.00 -82.00    -0.46612    
-105.00 -81.00    -0.49248    
-105.00 -80.00    -0.50240    
-105.00 -79.00    -0.49690    
-105.00 -78.00    -0.47603    
-105.00 -77.00    -0.43998    
-105.00 -76.00    -0.39180    
-105.00 -75.00    -0.33606    
-105.00 -74.00    -0.27936    
-105.00 -73.00    -0.22987    
-105.00 -72.00    -0.19365    
-105.00 -71.00    -0.17244    
-105.00 -70.00    -0.16163    
-105.00 -69.00    -0.15179    
-105.00 -68.00    -0.13053    
-105.00 -67.00    -0.87108E-01
-105.00 -66.00    -0.17590E-01
-105.00 -65.00     0.71444E-01
-105.00 -64.00     0.16327    
-105.00 -63.00     0.23302    
-105.00 -62.00     0.25608    
-105.00 -61.00     0.21484    
-105.00 -60.00     0.10720    
-105.00 -59.00    -0.50868E-01
-105.00 -58.00    -0.22708    
-105.00 -57.00    -0.38005    
-105.00 -56.00    -0.47089    
-105.00 -55.00    -0.47451    
-105.00 -54.00    -0.38875    
-105.00 -53.00    -0.23658    
-105.00 -52.00    -0.60770E-01
-105.00 -51.00     0.87144E-01
-105.00 -50.00     0.16186    
-105.00 -49.00     0.13831    
-105.00 -48.00     0.19937E-01
-105.00 -47.00    -0.16106    
-105.00 -46.00    -0.35225    
-105.00 -45.00    -0.49595    
-105.00 -44.00    -0.54641    
-105.00 -43.00    -0.48390    
-105.00 -42.00    -0.32146    
-105.00 -41.00    -0.10188    
-105.00 -40.00     0.11420    
-105.00 -39.00     0.26579    
-105.00 -38.00     0.30940    
-105.00 -37.00     0.23186    
-105.00 -36.00     0.54256E-01
-105.00 -35.00    -0.17424    
-105.00 -34.00    -0.39079    
-105.00 -33.00    -0.53716    
-105.00 -32.00    -0.57646    
-105.00 -31.00    -0.50333    
-105.00 -30.00    -0.34464    
-105.00 -29.00    -0.15077    
-105.00 -28.00     0.19765E-01
-105.00 -27.00     0.11754    
-105.00 -26.00     0.11625    
-105.00 -25.00     0.19359E-01
-105.00 -24.00    -0.14207    
-105.00 -23.00    -0.31951    
-105.00 -22.00    -0.46150    
-105.00 -21.00    -0.52814    
-105.00 -20.00    -0.50125    
-105.00 -19.00    -0.38756    
-105.00 -18.00    -0.21448    
-105.00 -17.00    -0.20413E-01
-105.00 -16.00     0.15700    
-105.00 -15.00     0.29089    
-105.00 -14.00     0.37061    
-105.00 -13.00     0.40128    
-105.00 -12.00     0.39840    
-105.00 -11.00     0.37981    
-105.00 -10.00     0.35798    
-105.00  -9.00     0.33543    
-105.00  -8.00     0.30463    
-105.00  -7.00     0.25216    
-105.00  -6.00     0.16542    
-105.00  -5.00     0.39392E-01
-105.00  -4.00    -0.11911    
-105.00  -3.00    -0.29112    
-105.00  -2.00    -0.44954    
-105.00  -1.00    -0.56598    
-105.00   0.00    -0.61857    
-105.00   1.00    -0.59805    
-105.00   2.00    -0.51042    
-105.00   3.00    -0.37534    
-105.00   4.00    -0.22092    
-105.00   5.00    -0.76386E-01
-105.00   6.00     0.35159E-01
-105.00   7.00     0.10189    
-105.00   8.00     0.12504    
-105.00   9.00     0.11714    
-105.00  10.00     0.97372E-01
-105.00  11.00     0.85581E-01
-105.00  12.00     0.96708E-01
-105.00  13.00     0.13699    
-105.00  14.00     0.20277    
-105.00  15.00     0.28206    
-105.00  16.00     0.35804    
-105.00  17.00     0.41365    
-105.00  18.00     0.43585    
-105.00  19.00     0.41875    
-105.00  20.00     0.36495    
-105.00  21.00     0.28476    
-105.00  22.00     0.19389    
-105.00  23.00     0.10983    
-105.00  24.00     0.47976E-01
-105.00  25.00     0.18173E-01
-105.00  26.00     0.22443E-01
-105.00  27.00     0.54398E-01
-105.00  28.00     0.10056    
-105.00  29.00     0.14340    
-105.00  30.00     0.16553    
-105.00  31.00     0.15412    
-105.00  32.00     0.10460    
-105.00  33.00     0.22512E-01
-105.00  34.00    -0.76915E-01
-105.00  35.00    -0.17168    
-105.00  36.00    -0.23780    
-105.00  37.00    -0.25483    
-105.00  38.00    -0.21083    
-105.00  39.00    -0.10551    
-105.00  40.00     0.49465E-01
-105.00  41.00     0.23287    
-105.00  42.00     0.41856    
-105.00  43.00     0.58115    
-105.00  44.00     0.70111    
-105.00  45.00     0.76818    
-105.00  46.00     0.78225    
