 -33.00  82.00    -0.19935E-01
 -33.00  83.00     0.23411E-01
 -33.00  84.00     0.53310E-01
 -33.00  85.00     0.76139E-01
 -33.00  86.00     0.10054    
 -33.00  87.00     0.13019    
 -33.00  88.00     0.16428    
 -33.00  89.00     0.19284    
 -32.00 -89.00     0.19247    
 -32.00 -88.00     0.84539E-01
 -32.00 -87.00     0.20096E-01
 -32.00 -86.00     0.73573E-02
 -32.00 -85.00     0.42565E-01
 -32.00 -84.00     0.10921    
 -32.00 -83.00     0.18067    
 -32.00 -82.00     0.23186    
 -32.00 -81.00     0.23884    
 -32.00 -80.00     0.19148    
 -32.00 -79.00     0.92651E-01
 -32.00 -78.00    -0.39846E-01
 -32.00 -77.00    -0.17907    
 -32.00 -76.00    -0.29658    
 -32.00 -75.00    -0.36791    
 -32.00 -74.00    -0.37900    
 -32.00 -73.00    -0.33044    
 -32.00 -72.00    -0.23523    
 -32.00 -71.00    -0.11473    
 -32.00 -70.00     0.50380E-02
 -32.00 -69.00     0.10206    
 -32.00 -68.00     0.16188    
 -32.00 -67.00     0.18062    
 -32.00 -66.00     0.16441    
 -32.00 -65.00     0.12751    
 -32.00 -64.00     0.87772E-01
 -32.00 -63.00     0.61953E-01
 -32.00 -62.00     0.64005E-01
 -32.00 -61.00     0.10072    
 -32.00 -60.00     0.17285    
 -32.00 -59.00     0.27489    
 -32.00 -58.00     0.39683    
 -32.00 -57.00     0.52590    
 -32.00 -56.00     0.64869    
 -32.00 -55.00     0.75262    
 -32.00 -54.00     0.82718    
 -32.00 -53.00     0.86523    
 -32.00 -52.00     0.86375    
 -32.00 -51.00     0.82398    
 -32.00 -50.00     0.75129    
 -32.00 -49.00     0.65407    
 -32.00 -48.00     0.54245    
 -32.00 -47.00     0.42617    
 -32.00 -46.00     0.31337    
 -32.00 -45.00     0.20905    
 -32.00 -44.00     0.11514    
 -32.00 -43.00     0.31186E-01
 -32.00 -42.00    -0.44102E-01
 -32.00 -41.00    -0.11133    
 -32.00 -40.00    -0.16917    
 -32.00 -39.00    -0.21411    
 -32.00 -38.00    -0.24125    
 -32.00 -37.00    -0.24603    
 -32.00 -36.00    -0.22618    
 -32.00 -35.00    -0.18324    
 -32.00 -34.00    -0.12306    
 -32.00 -33.00    -0.55012E-01
 -32.00 -32.00     0.10044E-01
 -32.00 -31.00     0.62221E-01
 -32.00 -30.00     0.94907E-01
 -32.00 -29.00     0.10603    
 -32.00 -28.00     0.97941E-01
 -32.00 -27.00     0.75988E-01
 -32.00 -26.00     0.46330E-01
 -32.00 -25.00     0.13812E-01
 -32.00 -24.00    -0.19302E-01
 -32.00 -23.00    -0.53293E-01
 -32.00 -22.00    -0.89700E-01
 -32.00 -21.00    -0.12935    
 -32.00 -20.00    -0.17060    
 -32.00 -19.00    -0.20857    
 -32.00 -18.00    -0.23595    
 -32.00 -17.00    -0.24518    
 -32.00 -16.00    -0.23140    
 -32.00 -15.00    -0.19493    
 -32.00 -14.00    -0.14248    
 -32.00 -13.00    -0.86139E-01
 -32.00 -12.00    -0.40444E-01
 -32.00 -11.00    -0.18154E-01
 -32.00 -10.00    -0.26148E-01
 -32.00  -9.00    -0.62835E-01
 -32.00  -8.00    -0.11811    
 -32.00  -7.00    -0.17609    
 -32.00  -6.00    -0.21984    
 -32.00  -5.00    -0.23681    
 -32.00  -4.00    -0.22296    
 -32.00  -3.00    -0.18430    
 -32.00  -2.00    -0.13507    
 -32.00  -1.00    -0.92987E-01
 -32.00   0.00    -0.73093E-01
 -32.00   1.00    -0.82088E-01
 -32.00   2.00    -0.11524    
 -32.00   3.00    -0.15702    
 -32.00   4.00    -0.18557    
 -32.00   5.00    -0.17977    
 -32.00   6.00    -0.12672    
 -32.00   7.00    -0.27279E-01
 -32.00   8.00     0.10228    
 -32.00   9.00     0.23343    
 -32.00  10.00     0.33248    
 -32.00  11.00     0.36992    
 -32.00  12.00     0.32911    
 -32.00  13.00     0.21184    
 -32.00  14.00     0.38952E-01
 -32.00  15.00    -0.15434    
 -32.00  16.00    -0.32715    
 -32.00  17.00    -0.44329    
 -32.00  18.00    -0.48043    
 -32.00  19.00    -0.43542    
 -32.00  20.00    -0.32443    
 -32.00  21.00    -0.17793    
 -32.00  22.00    -0.32009E-01
 -32.00  23.00     0.81453E-01
 -32.00  24.00     0.14301    
 -32.00  25.00     0.15007    
 -32.00  26.00     0.11648    
 -32.00  27.00     0.67650E-01
 -32.00  28.00     0.32645E-01
 -32.00  29.00     0.35736E-01
 -32.00  30.00     0.89580E-01
 -32.00  31.00     0.19183    
 -32.00  32.00     0.32591    
 -32.00  33.00     0.46542    
 -32.00  34.00     0.58095    
 -32.00  35.00     0.64731    
 -32.00  36.00     0.64947    
 -32.00  37.00     0.58570    
 -32.00  38.00     0.46760    
 -32.00  39.00     0.31709    
 -32.00  40.00     0.16137    
 -32.00  41.00     0.27121E-01
 -32.00  42.00    -0.64755E-01
 -32.00  43.00    -0.10274    
 -32.00  44.00    -0.86294E-01
 -32.00  45.00    -0.24952E-01
 -32.00  46.00     0.64068E-01
 -32.00  47.00     0.16001    
 -32.00  48.00     0.24264    
 -32.00  49.00     0.29593    
 -32.00  50.00     0.31086    
 -32.00  51.00     0.28642    
 -32.00  52.00     0.22886    
 -32.00  53.00     0.14965    
 -32.00  54.00     0.62484E-01
 -32.00  55.00    -0.19909E-01
 -32.00  56.00    -0.88594E-01
 -32.00  57.00    -0.13965    
 -32.00  58.00    -0.17423    
 -32.00  59.00    -0.19717    
 -32.00  60.00    -0.21500    
 -32.00  61.00    -0.23289    
 -32.00  62.00    -0.25355    
 -32.00  63.00    -0.27603    
 -32.00  64.00    -0.29692    
 -32.00  65.00    -0.31193    
 -32.00  66.00    -0.31796    
 -32.00  67.00    -0.31481    
 -32.00  68.00    -0.30590    
 -32.00  69.00    -0.29731    
 -32.00  70.00    -0.29580    
 -32.00  71.00    -0.30604    
 -32.00  72.00    -0.32848    
 -32.00  73.00    -0.35877    
 -32.00  74.00    -0.38806    
 -32.00  75.00    -0.40583    
 -32.00  76.00    -0.40213    
 -32.00  77.00    -0.37212    
 -32.00  78.00    -0.31666    
 -32.00  79.00    -0.24309    
 -32.00  80.00    -0.16217    
 -32.00  81.00    -0.85691E-01
 -32.00  82.00    -0.22441E-01
 -32.00  83.00     0.23724E-01
 -32.00  84.00     0.56032E-01
 -32.00  85.00     0.80445E-01
 -32.00  86.00     0.10515    
 -32.00  87.00     0.13399    
 -32.00  88.00     0.16677    
 -32.00  89.00     0.19389    
 -31.00 -89.00     0.19212    
 -31.00 -88.00     0.83155E-01
 -31.00 -87.00     0.17249E-01
 -31.00 -86.00     0.29134E-02
 -31.00 -85.00     0.37070E-01
 -31.00 -84.00     0.10335    
 -31.00 -83.00     0.17534    
 -31.00 -82.00     0.22777    
 -31.00 -81.00     0.23605    
 -31.00 -80.00     0.18964    
 -31.00 -79.00     0.91308E-01
 -31.00 -78.00    -0.41314E-01
 -31.00 -77.00    -0.18106    
 -31.00 -76.00    -0.29886    
 -31.00 -75.00    -0.36980    
 -31.00 -74.00    -0.37955    
 -31.00 -73.00    -0.32867    
 -31.00 -72.00    -0.23039    
 -31.00 -71.00    -0.10668    
 -31.00 -70.00     0.16001E-01
 -31.00 -69.00     0.11526    
 -31.00 -68.00     0.17658    
 -31.00 -67.00     0.19634    
 -31.00 -66.00     0.18105    
 -31.00 -65.00     0.14558    
 -31.00 -64.00     0.10785    
 -31.00 -63.00     0.84610E-01
 -31.00 -62.00     0.89342E-01
 -31.00 -61.00     0.12809    
 -31.00 -60.00     0.20082    
 -31.00 -59.00     0.30144    
 -31.00 -58.00     0.41970    
 -31.00 -57.00     0.54306    
 -31.00 -56.00     0.65866    
 -31.00 -55.00     0.75465    
 -31.00 -54.00     0.82116    
 -31.00 -53.00     0.85147    
 -31.00 -52.00     0.84254    
 -31.00 -51.00     0.79553    
 -31.00 -50.00     0.71553    
 -31.00 -49.00     0.61103    
 -31.00 -48.00     0.49273    
 -31.00 -47.00     0.37151    
 -31.00 -46.00     0.25706    
 -31.00 -45.00     0.15600    
 -31.00 -44.00     0.71521E-01
 -31.00 -43.00     0.36481E-02
 -31.00 -42.00    -0.49550E-01
 -31.00 -41.00    -0.90442E-01
 -31.00 -40.00    -0.12039    
 -31.00 -39.00    -0.13904    
 -31.00 -38.00    -0.14451    
 -31.00 -37.00    -0.13456    
 -31.00 -36.00    -0.10811    
 -31.00 -35.00    -0.66602E-01
 -31.00 -34.00    -0.14630E-01
 -31.00 -33.00     0.40604E-01
 -31.00 -32.00     0.90790E-01
 -31.00 -31.00     0.12856    
 -31.00 -30.00     0.14939    
 -31.00 -29.00     0.15260    
 -31.00 -28.00     0.14119    
 -31.00 -27.00     0.12041    
 -31.00 -26.00     0.95698E-01
 -31.00 -25.00     0.70697E-01
 -31.00 -24.00     0.46119E-01
 -31.00 -23.00     0.19950E-01
 -31.00 -22.00    -0.11089E-01
 -31.00 -21.00    -0.49344E-01
 -31.00 -20.00    -0.94194E-01
 -31.00 -19.00    -0.14106    
 -31.00 -18.00    -0.18201    
 -31.00 -17.00    -0.20792    
 -31.00 -16.00    -0.21156    
 -31.00 -15.00    -0.19056    
 -31.00 -14.00    -0.14909    
 -31.00 -13.00    -0.97499E-01
 -31.00 -12.00    -0.49888E-01
 -31.00 -11.00    -0.20109E-01
 -31.00 -10.00    -0.17562E-01
 -31.00  -9.00    -0.44118E-01
 -31.00  -8.00    -0.93305E-01
 -31.00  -7.00    -0.15213    
 -31.00  -6.00    -0.20508    
 -31.00  -5.00    -0.23895    
 -31.00  -4.00    -0.24703    
 -31.00  -3.00    -0.23106    
 -31.00  -2.00    -0.20024    
 -31.00  -1.00    -0.16762    
 -31.00   0.00    -0.14499    
 -31.00   1.00    -0.13800    
 -31.00   2.00    -0.14346    
 -31.00   3.00    -0.14973    
 -31.00   4.00    -0.14053    
 -31.00   5.00    -0.10090    
 -31.00   6.00    -0.23588E-01
 -31.00   7.00     0.86535E-01
 -31.00   8.00     0.21152    
 -31.00   9.00     0.32368    
 -31.00  10.00     0.39249    
 -31.00  11.00     0.39317    
 -31.00  12.00     0.31447    
 -31.00  13.00     0.16316    
 -31.00  14.00    -0.36121E-01
 -31.00  15.00    -0.24617    
 -31.00  16.00    -0.42602    
 -31.00  17.00    -0.54112    
 -31.00  18.00    -0.57191    
 -31.00  19.00    -0.51850    
 -31.00  20.00    -0.40008    
 -31.00  21.00    -0.24932    
 -31.00  22.00    -0.10341    
 -31.00  23.00     0.58381E-02
 -31.00  24.00     0.59995E-01
 -31.00  25.00     0.58080E-01
 -31.00  26.00     0.15719E-01
 -31.00  27.00    -0.40139E-01
 -31.00  28.00    -0.79320E-01
 -31.00  29.00    -0.76999E-01
 -31.00  30.00    -0.20448E-01
 -31.00  31.00     0.87744E-01
 -31.00  32.00     0.23059    
 -31.00  33.00     0.38128    
 -31.00  34.00     0.51003    
 -31.00  35.00     0.59125    
 -31.00  36.00     0.60941    
 -31.00  37.00     0.56214    
 -31.00  38.00     0.46018    
 -31.00  39.00     0.32450    
 -31.00  40.00     0.18133    
 -31.00  41.00     0.56646E-01
 -31.00  42.00    -0.28972E-01
 -31.00  43.00    -0.63889E-01
 -31.00  44.00    -0.47022E-01
 -31.00  45.00     0.12854E-01
 -31.00  46.00     0.99194E-01
 -31.00  47.00     0.19170    
 -31.00  48.00     0.27007    
 -31.00  49.00     0.31774    
 -31.00  50.00     0.32492    
 -31.00  51.00     0.28983    
 -31.00  52.00     0.21843    
 -31.00  53.00     0.12263    
 -31.00  54.00     0.17388E-01
 -31.00  55.00    -0.82595E-01
 -31.00  56.00    -0.16600    
 -31.00  57.00    -0.22668    
 -31.00  58.00    -0.26425    
 -31.00  59.00    -0.28315    
 -31.00  60.00    -0.29067    
 -31.00  61.00    -0.29390    
 -31.00  62.00    -0.29810    
 -31.00  63.00    -0.30498    
 -31.00  64.00    -0.31330    
 -31.00  65.00    -0.32010    
 -31.00  66.00    -0.32247    
 -31.00  67.00    -0.31932    
 -31.00  68.00    -0.31276    
 -31.00  69.00    -0.30721    
 -31.00  70.00    -0.30807    
 -31.00  71.00    -0.31940    
 -31.00  72.00    -0.34154    
 -31.00  73.00    -0.37047    
 -31.00  74.00    -0.39809    
 -31.00  75.00    -0.41461    
 -31.00  76.00    -0.41016    
 -31.00  77.00    -0.38008    
 -31.00  78.00    -0.32477    
 -31.00  79.00    -0.25098    
 -31.00  80.00    -0.16906    
 -31.00  81.00    -0.90648E-01
 -31.00  82.00    -0.24764E-01
 -31.00  83.00     0.24158E-01
 -31.00  84.00     0.58853E-01
 -31.00  85.00     0.84833E-01
 -31.00  86.00     0.10983    
 -31.00  87.00     0.13785    
 -31.00  88.00     0.16929    
 -31.00  89.00     0.19495    
 -30.00 -89.00     0.19181    
 -30.00 -88.00     0.81849E-01
 -30.00 -87.00     0.14504E-01
 -30.00 -86.00    -0.14203E-02
 -30.00 -85.00     0.31695E-01
 -30.00 -84.00     0.97636E-01
 -30.00 -83.00     0.17026    
 -30.00 -82.00     0.22402    
 -30.00 -81.00     0.23385    
 -30.00 -80.00     0.18881    
 -30.00 -79.00     0.91557E-01
 -30.00 -78.00    -0.40474E-01
 -30.00 -77.00    -0.18002    
 -30.00 -76.00    -0.29743    
 -30.00 -75.00    -0.36746    
 -30.00 -74.00    -0.37563    
 -30.00 -73.00    -0.32251    
 -30.00 -72.00    -0.22152    
 -30.00 -71.00    -0.95241E-01
 -30.00 -70.00     0.29690E-01
 -30.00 -69.00     0.13061    
 -30.00 -68.00     0.19313    
 -30.00 -67.00     0.21397    
 -30.00 -66.00     0.20007    
 -30.00 -65.00     0.16673    
 -30.00 -64.00     0.13172    
 -30.00 -63.00     0.11161    
 -30.00 -62.00     0.11898    
 -30.00 -61.00     0.15887    
 -30.00 -60.00     0.23026    
 -30.00 -59.00     0.32637    
 -30.00 -58.00     0.43685    
 -30.00 -57.00     0.54969    
 -30.00 -56.00     0.65298    
 -30.00 -55.00     0.73611    
 -30.00 -54.00     0.79037    
 -30.00 -53.00     0.80989    
 -30.00 -52.00     0.79186    
 -30.00 -51.00     0.73741    
 -30.00 -50.00     0.65123    
 -30.00 -49.00     0.54165    
 -30.00 -48.00     0.41947    
 -30.00 -47.00     0.29631    
 -30.00 -46.00     0.18297    
 -30.00 -45.00     0.87390E-01
 -30.00 -44.00     0.13889E-01
 -30.00 -43.00    -0.37045E-01
 -30.00 -42.00    -0.67882E-01
 -30.00 -41.00    -0.82561E-01
 -30.00 -40.00    -0.84933E-01
 -30.00 -39.00    -0.77572E-01
 -30.00 -38.00    -0.61468E-01
 -30.00 -37.00    -0.36579E-01
 -30.00 -36.00    -0.29703E-02
 -30.00 -35.00     0.37998E-01
 -30.00 -34.00     0.82992E-01
 -30.00 -33.00     0.12688    
 -30.00 -32.00     0.16380    
 -30.00 -31.00     0.18873    
 -30.00 -30.00     0.19901    
 -30.00 -29.00     0.19512    
 -30.00 -28.00     0.18047    
 -30.00 -27.00     0.16001    
 -30.00 -26.00     0.13840    
 -30.00 -25.00     0.11812    
 -30.00 -24.00     0.98584E-01
 -30.00 -23.00     0.76423E-01
 -30.00 -22.00     0.47114E-01
 -30.00 -21.00     0.73170E-02
 -30.00 -20.00    -0.42922E-01
 -30.00 -19.00    -0.99004E-01
 -30.00 -18.00    -0.15226    
 -30.00 -17.00    -0.19210    
 -30.00 -16.00    -0.20929    
 -30.00 -15.00    -0.19922    
 -30.00 -14.00    -0.16408    
 -30.00 -13.00    -0.11307    
 -30.00 -12.00    -0.60315E-01
 -30.00 -11.00    -0.21120E-01
 -30.00 -10.00    -0.75758E-02
 -30.00  -9.00    -0.25002E-01
 -30.00  -8.00    -0.70353E-01
 -30.00  -7.00    -0.13318    
 -30.00  -6.00    -0.19886    
 -30.00  -5.00    -0.25303    
 -30.00  -4.00    -0.28579    
 -30.00  -3.00    -0.29419    
 -30.00  -2.00    -0.28224    
 -30.00  -1.00    -0.25842    
 -30.00   0.00    -0.23164    
 -30.00   1.00    -0.20721    
 -30.00   2.00    -0.18425    
 -30.00   3.00    -0.15579    
 -30.00   4.00    -0.11167    
 -30.00   5.00    -0.43208E-01
 -30.00   6.00     0.51659E-01
 -30.00   7.00     0.16503    
 -30.00   8.00     0.27866    
 -30.00   9.00     0.36733    
 -30.00  10.00     0.40506    
 -30.00  11.00     0.37274    
 -30.00  12.00     0.26465    
 -30.00  13.00     0.91864E-01
 -30.00  14.00    -0.11876    
 -30.00  15.00    -0.33008    
 -30.00  16.00    -0.50334    
 -30.00  17.00    -0.60758    
 -30.00  18.00    -0.62735    
 -30.00  19.00    -0.56640    
 -30.00  20.00    -0.44634    
 -30.00  21.00    -0.30065    
 -30.00  22.00    -0.16573    
 -30.00  23.00    -0.71365E-01
 -30.00  24.00    -0.33392E-01
 -30.00  25.00    -0.50262E-01
 -30.00  26.00    -0.10446    
 -30.00  27.00    -0.16810    
 -30.00  28.00    -0.21101    
 -30.00  29.00    -0.20905    
 -30.00  30.00    -0.15047    
 -30.00  31.00    -0.38658E-01
 -30.00  32.00     0.10904    
 -30.00  33.00     0.26603    
 -30.00  34.00     0.40311    
 -30.00  35.00     0.49542    
 -30.00  36.00     0.52783    
 -30.00  37.00     0.49779    
 -30.00  38.00     0.41511    
 -30.00  39.00     0.29918    
 -30.00  40.00     0.17434    
 -30.00  41.00     0.64690E-01
 -30.00  42.00    -0.10504E-01
 -30.00  43.00    -0.40182E-01
 -30.00  44.00    -0.22931E-01
 -30.00  45.00     0.33470E-01
 -30.00  46.00     0.11384    
 -30.00  47.00     0.19922    
 -30.00  48.00     0.27017    
 -30.00  49.00     0.31043    
 -30.00  50.00     0.30996    
 -30.00  51.00     0.26636    
 -30.00  52.00     0.18509    
 -30.00  53.00     0.77990E-01
 -30.00  54.00    -0.39434E-01
 -30.00  55.00    -0.15123    
 -30.00  56.00    -0.24439    
 -30.00  57.00    -0.31102    
 -30.00  58.00    -0.34947    
 -30.00  59.00    -0.36377    
 -30.00  60.00    -0.36176    
 -30.00  61.00    -0.35203    
 -30.00  62.00    -0.34191    
 -30.00  63.00    -0.33530    
 -30.00  64.00    -0.33272    
 -30.00  65.00    -0.33224    
 -30.00  66.00    -0.33105    
 -30.00  67.00    -0.32728    
 -30.00  68.00    -0.32187    
 -30.00  69.00    -0.31785    
 -30.00  70.00    -0.31955    
 -30.00  71.00    -0.33063    
 -30.00  72.00    -0.35152    
 -30.00  73.00    -0.37860    
 -30.00  74.00    -0.40450    
 -30.00  75.00    -0.42004    
 -30.00  76.00    -0.41537    
 -30.00  77.00    -0.38584    
 -30.00  78.00    -0.33132    
 -30.00  79.00    -0.25783    
 -30.00  80.00    -0.17531    
 -30.00  81.00    -0.95238E-01
 -30.00  82.00    -0.26883E-01
 -30.00  83.00     0.24731E-01
 -30.00  84.00     0.61788E-01
 -30.00  85.00     0.89307E-01
 -30.00  86.00     0.11459    
 -30.00  87.00     0.14177    
 -30.00  88.00     0.17184    
 -30.00  89.00     0.19601    
 -29.00 -89.00     0.19154    
 -29.00 -88.00     0.80623E-01
 -29.00 -87.00     0.11862E-01
 -29.00 -86.00    -0.56343E-02
 -29.00 -85.00     0.26454E-01
 -29.00 -84.00     0.92078E-01
 -29.00 -83.00     0.16543    
 -29.00 -82.00     0.22063    
 -29.00 -81.00     0.23225    
 -29.00 -80.00     0.18900    
 -29.00 -79.00     0.93396E-01
 -29.00 -78.00    -0.37347E-01
 -29.00 -77.00    -0.17599    
 -29.00 -76.00    -0.29235    
 -29.00 -75.00    -0.36101    
 -29.00 -74.00    -0.36742    
 -29.00 -73.00    -0.31219    
 -29.00 -72.00    -0.20893    
 -29.00 -71.00    -0.80749E-01
 -29.00 -70.00     0.45689E-01
 -29.00 -69.00     0.14763    
 -29.00 -68.00     0.21092    
 -29.00 -67.00     0.23273    
 -29.00 -66.00     0.22046    
 -29.00 -65.00     0.18966    
 -29.00 -64.00     0.15780    
 -29.00 -63.00     0.14099    
 -29.00 -62.00     0.15065    
 -29.00 -61.00     0.19054    
 -29.00 -60.00     0.25853    
 -29.00 -59.00     0.34716    
 -29.00 -58.00     0.44612    
 -29.00 -57.00     0.54423    
 -29.00 -56.00     0.63099    
 -29.00 -55.00     0.69749    
 -29.00 -54.00     0.73664    
 -29.00 -53.00     0.74375    
 -29.00 -52.00     0.71647    
 -29.00 -51.00     0.65586    
 -29.00 -50.00     0.56601    
 -29.00 -49.00     0.45466    
 -29.00 -48.00     0.33224    
 -29.00 -47.00     0.21057    
 -29.00 -46.00     0.10105    
 -29.00 -45.00     0.12621E-01
 -29.00 -44.00    -0.49482E-01
 -29.00 -43.00    -0.84290E-01
 -29.00 -42.00    -0.94625E-01
 -29.00 -41.00    -0.85676E-01
 -29.00 -40.00    -0.63372E-01
 -29.00 -39.00    -0.32806E-01
 -29.00 -38.00     0.25519E-02
 -29.00 -37.00     0.40816E-01
 -29.00 -36.00     0.80938E-01
 -29.00 -35.00     0.12167    
 -29.00 -34.00     0.16082    
 -29.00 -33.00     0.19508    
 -29.00 -32.00     0.22070    
 -29.00 -31.00     0.23460    
 -29.00 -30.00     0.23559    
 -29.00 -29.00     0.22497    
 -29.00 -28.00     0.20630    
 -29.00 -27.00     0.18420    
 -29.00 -26.00     0.16264    
 -29.00 -25.00     0.14332    
 -29.00 -24.00     0.12482    
 -29.00 -23.00     0.10305    
 -29.00 -22.00     0.72845E-01
 -29.00 -21.00     0.30360E-01
 -29.00 -20.00    -0.24637E-01
 -29.00 -19.00    -0.87508E-01
 -29.00 -18.00    -0.14912    
 -29.00 -17.00    -0.19795    
 -29.00 -16.00    -0.22343    
 -29.00 -15.00    -0.21943    
 -29.00 -14.00    -0.18682    
 -29.00 -13.00    -0.13405    
 -29.00 -12.00    -0.75451E-01
 -29.00 -11.00    -0.27630E-01
 -29.00 -10.00    -0.49808E-02
 -29.00  -9.00    -0.15694E-01
 -29.00  -8.00    -0.59509E-01
 -29.00  -7.00    -0.12792    
 -29.00  -6.00    -0.20676    
 -29.00  -5.00    -0.28031    
 -29.00  -4.00    -0.33553    
 -29.00  -3.00    -0.36519    
 -29.00  -2.00    -0.36871    
 -29.00  -1.00    -0.35080    
 -29.00   0.00    -0.31840    
 -29.00   1.00    -0.27721    
 -29.00   2.00    -0.22926    
 -29.00   3.00    -0.17242    
 -29.00   4.00    -0.10229    
 -29.00   5.00    -0.15667E-01
 -29.00   6.00     0.85671E-01
 -29.00   7.00     0.19244    
 -29.00   8.00     0.28784    
 -29.00   9.00     0.35057    
 -29.00  10.00     0.36022    
 -29.00  11.00     0.30350    
 -29.00  12.00     0.17956    
 -29.00  13.00     0.22082E-02
 -29.00  14.00    -0.20159    
 -29.00  15.00    -0.39722    
 -29.00  16.00    -0.55034    
 -29.00  17.00    -0.63528    
 -29.00  18.00    -0.64146    
 -29.00  19.00    -0.57603    
 -29.00  20.00    -0.46184    
 -29.00  21.00    -0.33134    
 -29.00  22.00    -0.21802    
 -29.00  23.00    -0.14775    
 -29.00  24.00    -0.13238    
 -29.00  25.00    -0.16731    
 -29.00  26.00    -0.23344    
 -29.00  27.00    -0.30294    
 -29.00  28.00    -0.34704    
 -29.00  29.00    -0.34370    
 -29.00  30.00    -0.28318    
 -29.00  31.00    -0.17019    
 -29.00  32.00    -0.22217E-01
 -29.00  33.00     0.13509    
 -29.00  34.00     0.27428    
 -29.00  35.00     0.37234    
 -29.00  36.00     0.41551    
 -29.00  37.00     0.40151    
 -29.00  38.00     0.33916    
 -29.00  39.00     0.24568    
 -29.00  40.00     0.14257    
 -29.00  41.00     0.51096E-01
 -29.00  42.00    -0.11699E-01
 -29.00  43.00    -0.35849E-01
 -29.00  44.00    -0.19690E-01
 -29.00  45.00     0.30353E-01
 -29.00  46.00     0.10121    
 -29.00  47.00     0.17613    
 -29.00  48.00     0.23743    
 -29.00  49.00     0.26986    
 -29.00  50.00     0.26347    
 -29.00  51.00     0.21526    
 -29.00  52.00     0.12978    
 -29.00  53.00     0.18185E-01
 -29.00  54.00    -0.10428    
 -29.00  55.00    -0.22123    
 -29.00  56.00    -0.31865    
 -29.00  57.00    -0.38742    
 -29.00  58.00    -0.42483    
 -29.00  59.00    -0.43445    
 -29.00  60.00    -0.42431    
 -29.00  61.00    -0.40405    
 -29.00  62.00    -0.38251    
 -29.00  63.00    -0.36520    
 -29.00  64.00    -0.35398    
 -29.00  65.00    -0.34764    
 -29.00  66.00    -0.34336    
 -29.00  67.00    -0.33858    
 -29.00  68.00    -0.33323    
 -29.00  69.00    -0.32928    
 -29.00  70.00    -0.33026    
 -29.00  71.00    -0.33974    
 -29.00  72.00    -0.35841    
 -29.00  73.00    -0.38313    
 -29.00  74.00    -0.40722    
 -29.00  75.00    -0.42206    
 -29.00  76.00    -0.41774    
 -29.00  77.00    -0.38937    
 -29.00  78.00    -0.33626    
 -29.00  79.00    -0.26361    
 -29.00  80.00    -0.18089    
 -29.00  81.00    -0.99438E-01
 -29.00  82.00    -0.28779E-01
 -29.00  83.00     0.25458E-01
 -29.00  84.00     0.64850E-01
 -29.00  85.00     0.93867E-01
 -29.00  86.00     0.11942    
 -29.00  87.00     0.14575    
 -29.00  88.00     0.17443    
 -29.00  89.00     0.19708    
 -28.00 -89.00     0.19131    
 -28.00 -88.00     0.79478E-01
 -28.00 -87.00     0.93284E-02
 -28.00 -86.00    -0.97188E-02
 -28.00 -85.00     0.21357E-01
 -28.00 -84.00     0.86697E-01
 -28.00 -83.00     0.16087    
 -28.00 -82.00     0.21759    
 -28.00 -81.00     0.23127    
 -28.00 -80.00     0.19022    
 -28.00 -79.00     0.96805E-01
 -28.00 -78.00    -0.31987E-01
 -28.00 -77.00    -0.16903    
 -28.00 -76.00    -0.28375    
 -28.00 -75.00    -0.35063    
 -28.00 -74.00    -0.35515    
 -28.00 -73.00    -0.29803    
 -28.00 -72.00    -0.19300    
 -28.00 -71.00    -0.63648E-01
 -28.00 -70.00     0.63484E-01
 -28.00 -69.00     0.16568    
 -28.00 -68.00     0.22920    
 -28.00 -67.00     0.25169    
 -28.00 -66.00     0.24107    
 -28.00 -65.00     0.21290    
 -28.00 -64.00     0.18431    
 -28.00 -63.00     0.17069    
 -28.00 -62.00     0.18203    
 -28.00 -61.00     0.22067    
 -28.00 -60.00     0.28328    
 -28.00 -59.00     0.36177    
 -28.00 -58.00     0.44606    
 -28.00 -57.00     0.52612    
 -28.00 -56.00     0.59328    
 -28.00 -55.00     0.64072    
 -28.00 -54.00     0.66338    
 -28.00 -53.00     0.65800    
 -28.00 -52.00     0.62283    
 -28.00 -51.00     0.55871    
 -28.00 -50.00     0.46887    
 -28.00 -49.00     0.36001    
 -28.00 -48.00     0.24164    
 -28.00 -47.00     0.12516    
 -28.00 -46.00     0.22038E-01
 -28.00 -45.00    -0.58169E-01
 -28.00 -44.00    -0.10951    
 -28.00 -43.00    -0.13051    
 -28.00 -42.00    -0.12410    
 -28.00 -41.00    -0.96298E-01
 -28.00 -40.00    -0.54540E-01
 -28.00 -39.00    -0.58375E-02
 -28.00 -38.00     0.44419E-01
 -28.00 -37.00     0.92858E-01
 -28.00 -36.00     0.13771    
 -28.00 -35.00     0.17788    
 -28.00 -34.00     0.21212    
 -28.00 -33.00     0.23858    
 -28.00 -32.00     0.25511    
 -28.00 -31.00     0.26002    
 -28.00 -30.00     0.25301    
 -28.00 -29.00     0.23581    
 -28.00 -28.00     0.21193    
 -28.00 -27.00     0.18569    
 -28.00 -26.00     0.16074    
 -28.00 -25.00     0.13852    
 -28.00 -24.00     0.11752    
 -28.00 -23.00     0.93643E-01
 -28.00 -22.00     0.61699E-01
 -28.00 -21.00     0.17741E-01
 -28.00 -20.00    -0.38697E-01
 -28.00 -19.00    -0.10326    
 -28.00 -18.00    -0.16699    
 -28.00 -17.00    -0.21834    
 -28.00 -16.00    -0.24633    
 -28.00 -15.00    -0.24419    
 -28.00 -14.00    -0.21205    
 -28.00 -13.00    -0.15780    
 -28.00 -12.00    -0.95728E-01
 -28.00 -11.00    -0.43092E-01
 -28.00 -10.00    -0.15639E-01
 -28.00  -9.00    -0.23358E-01
 -28.00  -8.00    -0.67782E-01
 -28.00  -7.00    -0.14162    
 -28.00  -6.00    -0.23086    
 -28.00  -5.00    -0.31857    
 -28.00  -4.00    -0.38931    
 -28.00  -3.00    -0.43258    
 -28.00  -2.00    -0.44457    
 -28.00  -1.00    -0.42760    
 -28.00   0.00    -0.38783    
 -28.00   1.00    -0.33217    
 -28.00   2.00    -0.26580    
 -28.00   3.00    -0.19103    
 -28.00   4.00    -0.10818    
 -28.00   5.00    -0.17875E-01
 -28.00   6.00     0.76225E-01
 -28.00   7.00     0.16550    
 -28.00   8.00     0.23642    
 -28.00   9.00     0.27285    
 -28.00  10.00     0.26033    
 -28.00  11.00     0.19099    
 -28.00  12.00     0.67370E-01
 -28.00  13.00    -0.96028E-01
 -28.00  14.00    -0.27464    
 -28.00  15.00    -0.43879    
 -28.00  16.00    -0.56053    
 -28.00  17.00    -0.62062    
 -28.00  18.00    -0.61353    
 -28.00  19.00    -0.54894    
 -28.00  20.00    -0.44929    
 -28.00  21.00    -0.34390    
 -28.00  22.00    -0.26125    
 -28.00  23.00    -0.22159    
 -28.00  24.00    -0.23186    
 -28.00  25.00    -0.28431    
 -28.00  26.00    -0.35902    
 -28.00  27.00    -0.42957    
 -28.00  28.00    -0.47018    
 -28.00  29.00    -0.46236    
 -28.00  30.00    -0.39942    
 -28.00  31.00    -0.28769    
 -28.00  32.00    -0.14451    
 -28.00  33.00     0.63565E-02
 -28.00  34.00     0.14035    
 -28.00  35.00     0.23754    
 -28.00  36.00     0.28640    
 -28.00  37.00     0.28539    
 -28.00  38.00     0.24226    
 -28.00  39.00     0.17153    
 -28.00  40.00     0.91082E-01
 -28.00  41.00     0.18435E-01
 -28.00  42.00    -0.32243E-01
 -28.00  43.00    -0.52430E-01
 -28.00  44.00    -0.40150E-01
 -28.00  45.00    -0.25046E-04
 -28.00  46.00     0.57726E-01
 -28.00  47.00     0.11938    
 -28.00  48.00     0.16978    
 -28.00  49.00     0.19522    
 -28.00  50.00     0.18603    
 -28.00  51.00     0.13846    
 -28.00  52.00     0.55660E-01
 -28.00  53.00    -0.52661E-01
 -28.00  54.00    -0.17235    
 -28.00  55.00    -0.28743    
 -28.00  56.00    -0.38354    
 -28.00  57.00    -0.45081    
 -28.00  58.00    -0.48562    
 -28.00  59.00    -0.49095    
 -28.00  60.00    -0.47468    
 -28.00  61.00    -0.44696    
 -28.00  62.00    -0.41750    
 -28.00  63.00    -0.39288    
 -28.00  64.00    -0.37579    
 -28.00  65.00    -0.36544    
 -28.00  66.00    -0.35882    
 -28.00  67.00    -0.35287    
 -28.00  68.00    -0.34666    
 -28.00  69.00    -0.34140    
 -28.00  70.00    -0.34018    
 -28.00  71.00    -0.34672    
 -28.00  72.00    -0.36219    
 -28.00  73.00    -0.38404    
 -28.00  74.00    -0.40627    
 -28.00  75.00    -0.42067    
 -28.00  76.00    -0.41724    
 -28.00  77.00    -0.39068    
 -28.00  78.00    -0.33959    
 -28.00  79.00    -0.26831    
 -28.00  80.00    -0.18579    
 -28.00  81.00    -0.10323    
 -28.00  82.00    -0.30435E-01
 -28.00  83.00     0.26354E-01
 -28.00  84.00     0.68048E-01
 -28.00  85.00     0.98518E-01
 -28.00  86.00     0.12432    
 -28.00  87.00     0.14980    
 -28.00  88.00     0.17704    
 -28.00  89.00     0.19816    
 -27.00 -89.00     0.19112    
 -27.00 -88.00     0.78417E-01
 -27.00 -87.00     0.69060E-02
 -27.00 -86.00    -0.13665E-01
 -27.00 -85.00     0.16414E-01
 -27.00 -84.00     0.81507E-01
 -27.00 -83.00     0.15659    
 -27.00 -82.00     0.21492    
 -27.00 -81.00     0.23090    
 -27.00 -80.00     0.19244    
 -27.00 -79.00     0.10174    
 -27.00 -78.00    -0.24472E-01
 -27.00 -77.00    -0.15928    
 -27.00 -76.00    -0.27179    
 -27.00 -75.00    -0.33654    
 -27.00 -74.00    -0.33913    
 -27.00 -73.00    -0.28037    
 -27.00 -72.00    -0.17418    
 -27.00 -71.00    -0.44450E-01
 -27.00 -70.00     0.82481E-01
 -27.00 -69.00     0.18409    
 -27.00 -68.00     0.24713    
 -27.00 -67.00     0.26984    
 -27.00 -66.00     0.26063    
 -27.00 -65.00     0.23491    
 -27.00 -64.00     0.20946    
 -27.00 -63.00     0.19866    
 -27.00 -62.00     0.21092    
 -27.00 -61.00     0.24709    
 -27.00 -60.00     0.30258    
 -27.00 -59.00     0.36879    
 -27.00 -58.00     0.43605    
 -27.00 -57.00     0.49583    
 -27.00 -56.00     0.54159    
 -27.00 -55.00     0.56898    
 -27.00 -54.00     0.57526    
 -27.00 -53.00     0.55875    
 -27.00 -52.00     0.51833    
 -27.00 -51.00     0.45443    
 -27.00 -50.00     0.36916    
 -27.00 -49.00     0.26766    
 -27.00 -48.00     0.15793    
 -27.00 -47.00     0.50384E-01
 -27.00 -46.00    -0.43989E-01
 -27.00 -45.00    -0.11543    
 -27.00 -44.00    -0.15748    
 -27.00 -43.00    -0.16814    
 -27.00 -42.00    -0.15016    
 -27.00 -41.00    -0.10989    
 -27.00 -40.00    -0.55617E-01
 -27.00 -39.00     0.44594E-02
 -27.00 -38.00     0.63719E-01
 -27.00 -37.00     0.11787    
 -27.00 -36.00     0.16474    
 -27.00 -35.00     0.20347    
 -27.00 -34.00     0.23354    
 -27.00 -33.00     0.25410    
 -27.00 -32.00     0.26394    
 -27.00 -31.00     0.26206    
 -27.00 -30.00     0.24848    
 -27.00 -29.00     0.22488    
 -27.00 -28.00     0.19456    
 -27.00 -27.00     0.16175    
 -27.00 -26.00     0.13021    
 -27.00 -25.00     0.10185    
 -27.00 -24.00     0.75890E-01
 -27.00 -23.00     0.48985E-01
 -27.00 -22.00     0.16505E-01
 -27.00 -21.00    -0.25397E-01
 -27.00 -20.00    -0.77618E-01
 -27.00 -19.00    -0.13670    
 -27.00 -18.00    -0.19483    
 -27.00 -17.00    -0.24153    
 -27.00 -16.00    -0.26656    
 -27.00 -15.00    -0.26335    
 -27.00 -14.00    -0.23172    
 -27.00 -13.00    -0.17894    
 -27.00 -12.00    -0.11861    
 -27.00 -11.00    -0.67563E-01
 -27.00 -10.00    -0.41520E-01
 -27.00  -9.00    -0.50870E-01
 -27.00  -8.00    -0.97744E-01
 -27.00  -7.00    -0.17533    
 -27.00  -6.00    -0.26963    
 -27.00  -5.00    -0.36305    
 -27.00  -4.00    -0.43884    
 -27.00  -3.00    -0.48487    
 -27.00  -2.00    -0.49586    
 -27.00  -1.00    -0.47344    
 -27.00   0.00    -0.42431    
 -27.00   1.00    -0.35732    
 -27.00   2.00    -0.28072    
 -27.00   3.00    -0.20044    
 -27.00   4.00    -0.11993    
 -27.00   5.00    -0.41595E-01
 -27.00   6.00     0.31291E-01
 -27.00   7.00     0.92895E-01
 -27.00   8.00     0.13454    
 -27.00   9.00     0.14612    
 -27.00  10.00     0.11908    
 -27.00  11.00     0.49850E-01
 -27.00  12.00    -0.57380E-01
 -27.00  13.00    -0.18979    
 -27.00  14.00    -0.32764    
 -27.00  15.00    -0.44828    
 -27.00  16.00    -0.53160    
 -27.00  17.00    -0.56532    
 -27.00  18.00    -0.54844    
 -27.00  19.00    -0.49186    
 -27.00  20.00    -0.41569    
 -27.00  21.00    -0.34401    
 -27.00  22.00    -0.29844    
 -27.00  23.00    -0.29236    
 -27.00  24.00    -0.32737    
 -27.00  25.00    -0.39301    
 -27.00  26.00    -0.46969    
 -27.00  27.00    -0.53398    
 -27.00  28.00    -0.56474    
 -27.00  29.00    -0.54842    
 -27.00  30.00    -0.48220    
 -27.00  31.00    -0.37420    
 -27.00  32.00    -0.24106    
 -27.00  33.00    -0.10376    
 -27.00  34.00     0.17259E-01
 -27.00  35.00     0.10625    
 -27.00  36.00     0.15477    
 -27.00  37.00     0.16236    
 -27.00  38.00     0.13561    
 -27.00  39.00     0.85904E-01
 -27.00  40.00     0.26791E-01
 -27.00  41.00    -0.28566E-01
 -27.00  42.00    -0.69377E-01
 -27.00  43.00    -0.88700E-01
 -27.00  44.00    -0.84062E-01
 -27.00  45.00    -0.57779E-01
 -27.00  46.00    -0.16514E-01
 -27.00  47.00     0.29729E-01
 -27.00  48.00     0.68926E-01
 -27.00  49.00     0.89265E-01
 -27.00  50.00     0.81425E-01
 -27.00  51.00     0.40567E-01
 -27.00  52.00    -0.32089E-01
 -27.00  53.00    -0.12907    
 -27.00  54.00    -0.23813    
 -27.00  55.00    -0.34448    
 -27.00  56.00    -0.43406    
 -27.00  57.00    -0.49661    
 -27.00  58.00    -0.52775    
 -27.00  59.00    -0.52971    
 -27.00  60.00    -0.50981    
 -27.00  61.00    -0.47816    
 -27.00  62.00    -0.44475    
 -27.00  63.00    -0.41661    
 -27.00  64.00    -0.39680    
 -27.00  65.00    -0.38459    
 -27.00  66.00    -0.37670    
 -27.00  67.00    -0.36964    
 -27.00  68.00    -0.36181    
 -27.00  69.00    -0.35399    
 -27.00  70.00    -0.34919    
 -27.00  71.00    -0.35152    
 -27.00  72.00    -0.36287    
 -27.00  73.00    -0.38136    
 -27.00  74.00    -0.40169    
 -27.00  75.00    -0.41592    
 -27.00  76.00    -0.41393    
 -27.00  77.00    -0.38979    
 -27.00  78.00    -0.34131    
 -27.00  79.00    -0.27191    
 -27.00  80.00    -0.18999    
 -27.00  81.00    -0.10659    
 -27.00  82.00    -0.31836E-01
 -27.00  83.00     0.27430E-01
 -27.00  84.00     0.71390E-01
 -27.00  85.00     0.10326    
 -27.00  86.00     0.12929    
 -27.00  87.00     0.15390    
 -27.00  88.00     0.17967    
 -27.00  89.00     0.19924    
 -26.00 -89.00     0.19098    
 -26.00 -88.00     0.77441E-01
 -26.00 -87.00     0.45987E-02
 -26.00 -86.00    -0.17463E-01
 -26.00 -85.00     0.11640E-01
 -26.00 -84.00     0.76521E-01
 -26.00 -83.00     0.15259    
 -26.00 -82.00     0.21263    
 -26.00 -81.00     0.23115    
 -26.00 -80.00     0.19565    
 -26.00 -79.00     0.10816    
 -26.00 -78.00    -0.14909E-01
 -26.00 -77.00    -0.14687    
 -26.00 -76.00    -0.25669    
 -26.00 -75.00    -0.31904    
 -26.00 -74.00    -0.31971    
 -26.00 -73.00    -0.25966    
 -26.00 -72.00    -0.15298    
 -26.00 -71.00    -0.23719E-01
 -26.00 -70.00     0.10203    
 -26.00 -69.00     0.20209    
 -26.00 -68.00     0.26383    
 -26.00 -67.00     0.28611    
 -26.00 -66.00     0.27784    
 -26.00 -65.00     0.25417    
 -26.00 -64.00     0.23152    
 -26.00 -63.00     0.22301    
 -26.00 -62.00     0.23541    
 -26.00 -61.00     0.26801    
 -26.00 -60.00     0.31504    
 -26.00 -59.00     0.36748    
 -26.00 -58.00     0.41632    
 -26.00 -57.00     0.45474    
 -26.00 -56.00     0.47863    
 -26.00 -55.00     0.48638    
 -26.00 -54.00     0.47770    
 -26.00 -53.00     0.45261    
 -26.00 -52.00     0.41054    
 -26.00 -51.00     0.35129    
 -26.00 -50.00     0.27553    
 -26.00 -49.00     0.18639    
 -26.00 -48.00     0.89847E-01
 -26.00 -47.00    -0.52504E-02
 -26.00 -46.00    -0.88872E-01
 -26.00 -45.00    -0.15145    
 -26.00 -44.00    -0.18621    
 -26.00 -43.00    -0.19062    
 -26.00 -42.00    -0.16697    
 -26.00 -41.00    -0.12143    
 -26.00 -40.00    -0.62448E-01
 -26.00 -39.00     0.13545E-02
 -26.00 -38.00     0.62893E-01
 -26.00 -37.00     0.11757    
 -26.00 -36.00     0.16322    
 -26.00 -35.00     0.19930    
 -26.00 -34.00     0.22579    
 -26.00 -33.00     0.24232    
 -26.00 -32.00     0.24797    
 -26.00 -31.00     0.24166    
 -26.00 -30.00     0.22309    
 -26.00 -29.00     0.19345    
 -26.00 -28.00     0.15576    
 -26.00 -27.00     0.11434    
 -26.00 -26.00     0.73642E-01
 -26.00 -25.00     0.36834E-01
 -26.00 -24.00     0.46828E-02
 -26.00 -23.00    -0.24663E-01
 -26.00 -22.00    -0.54840E-01
 -26.00 -21.00    -0.89536E-01
 -26.00 -20.00    -0.13048    
 -26.00 -19.00    -0.17594    
 -26.00 -18.00    -0.22034    
 -26.00 -17.00    -0.25550    
 -26.00 -16.00    -0.27301    
 -26.00 -15.00    -0.26727    
 -26.00 -14.00    -0.23805    
 -26.00 -13.00    -0.19166    
 -26.00 -12.00    -0.14012    
 -26.00 -11.00    -0.98506E-01
 -26.00 -10.00    -0.80959E-01
 -26.00  -9.00    -0.96758E-01
 -26.00  -8.00    -0.14745    
 -26.00  -7.00    -0.22607    
 -26.00  -6.00    -0.31868    
 -26.00  -5.00    -0.40780    
 -26.00  -4.00    -0.47674    
 -26.00  -3.00    -0.51354    
 -26.00  -2.00    -0.51336    
 -26.00  -1.00    -0.47884    
 -26.00   0.00    -0.41841    
 -26.00   1.00    -0.34340    
 -26.00   2.00    -0.26480    
 -26.00   3.00    -0.19101    
 -26.00   4.00    -0.12692    
 -26.00   5.00    -0.74559E-01
 -26.00   6.00    -0.34694E-01
 -26.00   7.00    -0.85600E-02
 -26.00   8.00     0.12056E-02
 -26.00   9.00    -0.91111E-02
 -26.00  10.00    -0.42750E-01
 -26.00  11.00    -0.10031    
 -26.00  12.00    -0.17789    
 -26.00  13.00    -0.26653    
 -26.00  14.00    -0.35326    
 -26.00  15.00    -0.42401    
 -26.00  16.00    -0.46720    
 -26.00  17.00    -0.47731    
 -26.00  18.00    -0.45689    
 -26.00  19.00    -0.41641    
 -26.00  20.00    -0.37174    
 -26.00  21.00    -0.33991    
 -26.00  22.00    -0.33433    
 -26.00  23.00    -0.36083    
 -26.00  24.00    -0.41584    
 -26.00  25.00    -0.48708    
 -26.00  26.00    -0.55669    
 -26.00  27.00    -0.60590    
 -26.00  28.00    -0.61973    
 -26.00  29.00    -0.59072    
 -26.00  30.00    -0.52042    
 -26.00  31.00    -0.41864    
 -26.00  32.00    -0.30074    
 -26.00  33.00    -0.18386    
 -26.00  34.00    -0.83257E-01
 -26.00  35.00    -0.95488E-02
 -26.00  36.00     0.32521E-01
 -26.00  37.00     0.43860E-01
 -26.00  38.00     0.29729E-01
 -26.00  39.00    -0.20316E-02
 -26.00  40.00    -0.42683E-01
 -26.00  41.00    -0.83875E-01
 -26.00  42.00    -0.11844    
 -26.00  43.00    -0.14097    
 -26.00  44.00    -0.14821    
 -26.00  45.00    -0.13965    
 -26.00  46.00    -0.11779    
 -26.00  47.00    -0.88353E-01
 -26.00  48.00    -0.59813E-01
 -26.00  49.00    -0.41909E-01
 -26.00  50.00    -0.43748E-01
 -26.00  51.00    -0.71586E-01
 -26.00  52.00    -0.12674    
 -26.00  53.00    -0.20472    
 -26.00  54.00    -0.29587    
 -26.00  55.00    -0.38734    
 -26.00  56.00    -0.46585    
 -26.00  57.00    -0.52115    
 -26.00  58.00    -0.54813    
 -26.00  59.00    -0.54809    
 -26.00  60.00    -0.52741    
 -26.00  61.00    -0.49568    
 -26.00  62.00    -0.46253    
 -26.00  63.00    -0.43489    
 -26.00  64.00    -0.41571    
 -26.00  65.00    -0.40402    
 -26.00  66.00    -0.39613    
 -26.00  67.00    -0.38821    
 -26.00  68.00    -0.37820    
 -26.00  69.00    -0.36675    
 -26.00  70.00    -0.35712    
 -26.00  71.00    -0.35409    
 -26.00  72.00    -0.36046    
 -26.00  73.00    -0.37516    
 -26.00  74.00    -0.39354    
 -26.00  75.00    -0.40789    
 -26.00  76.00    -0.40788    
 -26.00  77.00    -0.38676    
 -26.00  78.00    -0.34147    
 -26.00  79.00    -0.27445    
 -26.00  80.00    -0.19350    
 -26.00  81.00    -0.10953    
 -26.00  82.00    -0.32970E-01
 -26.00  83.00     0.28698E-01
 -26.00  84.00     0.74883E-01
 -26.00  85.00     0.10810    
 -26.00  86.00     0.13432    
 -26.00  87.00     0.15807    
 -26.00  88.00     0.18233    
 -26.00  89.00     0.20032    
 -25.00 -89.00     0.19088    
 -25.00 -88.00     0.76552E-01
 -25.00 -87.00     0.24104E-02
 -25.00 -86.00    -0.21104E-01
 -25.00 -85.00     0.70424E-02
 -25.00 -84.00     0.71752E-01
 -25.00 -83.00     0.14888    
 -25.00 -82.00     0.21071    
 -25.00 -81.00     0.23198    
 -25.00 -80.00     0.19980    
 -25.00 -79.00     0.11597    
 -25.00 -78.00    -0.34264E-02
 -25.00 -77.00    -0.13199    
 -25.00 -76.00    -0.23869    
 -25.00 -75.00    -0.29844    
 -25.00 -74.00    -0.29727    
 -25.00 -73.00    -0.23635    
 -25.00 -72.00    -0.12993    
 -25.00 -71.00    -0.20519E-02
 -25.00 -70.00     0.12148    
 -25.00 -69.00     0.21894    
 -25.00 -68.00     0.27843    
 -25.00 -67.00     0.29948    
 -25.00 -66.00     0.29148    
 -25.00 -65.00     0.26931    
 -25.00 -64.00     0.24894    
 -25.00 -63.00     0.24212    
 -25.00 -62.00     0.25393    
 -25.00 -61.00     0.28217    
 -25.00 -60.00     0.31989    
 -25.00 -59.00     0.35785    
 -25.00 -58.00     0.38786    
 -25.00 -57.00     0.40502    
 -25.00 -56.00     0.40785    
 -25.00 -55.00     0.39758    
 -25.00 -54.00     0.37644    
 -25.00 -53.00     0.34610    
 -25.00 -52.00     0.30646    
 -25.00 -51.00     0.25643    
 -25.00 -50.00     0.19499    
 -25.00 -49.00     0.12285    
 -25.00 -48.00     0.43546E-01
 -25.00 -47.00    -0.36093E-01
 -25.00 -46.00    -0.10739    
 -25.00 -45.00    -0.16130    
 -25.00 -44.00    -0.19093    
 -25.00 -43.00    -0.19321    
 -25.00 -42.00    -0.16972    
 -25.00 -41.00    -0.12601    
 -25.00 -40.00    -0.70049E-01
 -25.00 -39.00    -0.10125E-01
 -25.00 -38.00     0.46956E-01
 -25.00 -37.00     0.96926E-01
 -25.00 -36.00     0.13803    
 -25.00 -35.00     0.17015    
 -25.00 -34.00     0.19355    
 -25.00 -33.00     0.20787    
 -25.00 -32.00     0.21179    
 -25.00 -31.00     0.20347    
 -25.00 -30.00     0.18160    
 -25.00 -29.00     0.14653    
 -25.00 -28.00     0.10089    
 -25.00 -27.00     0.49369E-01
 -25.00 -26.00    -0.23206E-02
 -25.00 -25.00    -0.49036E-01
 -25.00 -24.00    -0.87683E-01
 -25.00 -23.00    -0.11800    
 -25.00 -22.00    -0.14232    
 -25.00 -21.00    -0.16423    
 -25.00 -20.00    -0.18683    
 -25.00 -19.00    -0.21092    
 -25.00 -18.00    -0.23431    
 -25.00 -17.00    -0.25220    
 -25.00 -16.00    -0.25896    
 -25.00 -15.00    -0.25052    
 -25.00 -14.00    -0.22667    
 -25.00 -13.00    -0.19229    
 -25.00 -12.00    -0.15683    
 -25.00 -11.00    -0.13226    
 -25.00 -10.00    -0.12972    
 -25.00  -9.00    -0.15603    
 -25.00  -8.00    -0.21119    
 -25.00  -7.00    -0.28765    
 -25.00  -6.00    -0.37177    
 -25.00  -5.00    -0.44703    
 -25.00  -4.00    -0.49819    
 -25.00  -3.00    -0.51506    
 -25.00  -2.00    -0.49493    
 -25.00  -1.00    -0.44281    
 -25.00   0.00    -0.36979    
 -25.00   1.00    -0.28981    
 -25.00   2.00    -0.21612    
 -25.00   3.00    -0.15843    
 -25.00   4.00    -0.12144    
 -25.00   5.00    -0.10505    
 -25.00   6.00    -0.10587    
 -25.00   7.00    -0.11934    
 -25.00   8.00    -0.14148    
 -25.00   9.00    -0.16981    
 -25.00  10.00    -0.20313    
 -25.00  11.00    -0.24050    
 -25.00  12.00    -0.28003    
 -25.00  13.00    -0.31820    
 -25.00  14.00    -0.35018    
 -25.00  15.00    -0.37104    
 -25.00  16.00    -0.37772    
 -25.00  17.00    -0.37065    
 -25.00  18.00    -0.35454    
 -25.00  19.00    -0.33780    
 -25.00  20.00    -0.33043    
 -25.00  21.00    -0.34114    
 -25.00  22.00    -0.37444    
 -25.00  23.00    -0.42867    
 -25.00  24.00    -0.49576    
 -25.00  25.00    -0.56285    
 -25.00  26.00    -0.61536    
 -25.00  27.00    -0.64062    
 -25.00  28.00    -0.63103    
 -25.00  29.00    -0.58590    
 -25.00  30.00    -0.51131    
 -25.00  31.00    -0.41840    
 -25.00  32.00    -0.32048    
 -25.00  33.00    -0.22994    
 -25.00  34.00    -0.15596    
 -25.00  35.00    -0.10336    
 -25.00  36.00    -0.72794E-01
 -25.00  37.00    -0.61980E-01
 -25.00  38.00    -0.67174E-01
 -25.00  39.00    -0.84430E-01
 -25.00  40.00    -0.11017    
 -25.00  41.00    -0.14106    
 -25.00  42.00    -0.17359    
 -25.00  43.00    -0.20369    
 -25.00  44.00    -0.22694    
 -25.00  45.00    -0.23948    
 -25.00  46.00    -0.23920    
 -25.00  47.00    -0.22716    
 -25.00  48.00    -0.20804    
 -25.00  49.00    -0.18951    
 -25.00  50.00    -0.18068    
 -25.00  51.00    -0.18960    
 -25.00  52.00    -0.22068    
 -25.00  53.00    -0.27300    
 -25.00  54.00    -0.34016    
 -25.00  55.00    -0.41172    
 -25.00  56.00    -0.47569    
 -25.00  57.00    -0.52200    
 -25.00  58.00    -0.54491    
 -25.00  59.00    -0.54460    
 -25.00  60.00    -0.52622    
 -25.00  61.00    -0.49830    
 -25.00  62.00    -0.46963    
 -25.00  63.00    -0.44651    
 -25.00  64.00    -0.43136    
 -25.00  65.00    -0.42264    
 -25.00  66.00    -0.41618    
 -25.00  67.00    -0.40780    
 -25.00  68.00    -0.39522    
 -25.00  69.00    -0.37927    
 -25.00  70.00    -0.36373    
 -25.00  71.00    -0.35434    
 -25.00  72.00    -0.35498    
 -25.00  73.00    -0.36552    
 -25.00  74.00    -0.38197    
 -25.00  75.00    -0.39674    
 -25.00  76.00    -0.39920    
 -25.00  77.00    -0.38170    
 -25.00  78.00    -0.34013    
 -25.00  79.00    -0.27595    
 -25.00  80.00    -0.19632    
 -25.00  81.00    -0.11202    
 -25.00  82.00    -0.33825E-01
 -25.00  83.00     0.30164E-01
 -25.00  84.00     0.78530E-01
 -25.00  85.00     0.11303    
 -25.00  86.00     0.13942    
 -25.00  87.00     0.16230    
 -25.00  88.00     0.18501    
 -25.00  89.00     0.20141    
 -24.00 -89.00     0.19082    
 -24.00 -88.00     0.75751E-01
 -24.00 -87.00     0.34561E-03
 -24.00 -86.00    -0.24578E-01
 -24.00 -85.00     0.26327E-02
 -24.00 -84.00     0.67209E-01
 -24.00 -83.00     0.14543    
 -24.00 -82.00     0.20915    
 -24.00 -81.00     0.23339    
 -24.00 -80.00     0.20485    
 -24.00 -79.00     0.12508    
 -24.00 -78.00     0.98304E-02
 -24.00 -77.00    -0.11485    
 -24.00 -76.00    -0.21807    
 -24.00 -75.00    -0.27509    
 -24.00 -74.00    -0.27225    
 -24.00 -73.00    -0.21092    
 -24.00 -72.00    -0.10558    
 -24.00 -71.00     0.19948E-01
 -24.00 -70.00     0.14014    
 -24.00 -69.00     0.23388    
 -24.00 -68.00     0.29008    
 -24.00 -67.00     0.30900    
 -24.00 -66.00     0.30045    
 -24.00 -65.00     0.27911    
 -24.00 -64.00     0.26043    
 -24.00 -63.00     0.25471    
 -24.00 -62.00     0.26539    
 -24.00 -61.00     0.28880    
 -24.00 -60.00     0.31698    
 -24.00 -59.00     0.34055    
 -24.00 -58.00     0.35234    
 -24.00 -57.00     0.34946    
 -24.00 -56.00     0.33312    
 -24.00 -55.00     0.30741    
 -24.00 -54.00     0.27704    
 -24.00 -53.00     0.24514    
 -24.00 -52.00     0.21197    
 -24.00 -51.00     0.17535    
 -24.00 -50.00     0.13232    
 -24.00 -49.00     0.80928E-01
 -24.00 -48.00     0.22008E-01
 -24.00 -47.00    -0.39940E-01
 -24.00 -46.00    -0.97839E-01
 -24.00 -45.00    -0.14344    
 -24.00 -44.00    -0.16989    
 -24.00 -43.00    -0.17360    
 -24.00 -42.00    -0.15528    
 -24.00 -41.00    -0.11952    
 -24.00 -40.00    -0.73269E-01
 -24.00 -39.00    -0.23879E-01
 -24.00 -38.00     0.22798E-01
 -24.00 -37.00     0.63402E-01
 -24.00 -36.00     0.96976E-01
 -24.00 -35.00     0.12395    
 -24.00 -34.00     0.14474    
 -24.00 -33.00     0.15855    
 -24.00 -32.00     0.16306    
 -24.00 -31.00     0.15501    
 -24.00 -30.00     0.13157    
 -24.00 -29.00     0.91846E-01
 -24.00 -28.00     0.38021E-01
 -24.00 -27.00    -0.24597E-01
 -24.00 -26.00    -0.88565E-01
 -24.00 -25.00    -0.14613    
 -24.00 -24.00    -0.19126    
 -24.00 -23.00    -0.22110    
 -24.00 -22.00    -0.23646    
 -24.00 -21.00    -0.24102    
 -24.00 -20.00    -0.23966    
 -24.00 -19.00    -0.23653    
 -24.00 -18.00    -0.23363    
 -24.00 -17.00    -0.23043    
 -24.00 -16.00    -0.22470    
 -24.00 -15.00    -0.21423    
 -24.00 -14.00    -0.19874    
 -24.00 -13.00    -0.18111    
 -24.00 -12.00    -0.16743    
 -24.00 -11.00    -0.16551    
 -24.00 -10.00    -0.18236    
 -24.00  -9.00    -0.22147    
 -24.00  -8.00    -0.28072    
 -24.00  -7.00    -0.35186    
 -24.00  -6.00    -0.42188    
 -24.00  -5.00    -0.47604    
 -24.00  -4.00    -0.50159    
 -24.00  -3.00    -0.49137    
 -24.00  -2.00    -0.44583    
 -24.00  -1.00    -0.37321    
 -24.00   0.00    -0.28757    
 -24.00   1.00    -0.20534    
 -24.00   2.00    -0.14137    
 -24.00   3.00    -0.10567    
 -24.00   4.00    -0.10157    
 -24.00   5.00    -0.12568    
 -24.00   6.00    -0.16962    
 -24.00   7.00    -0.22261    
 -24.00   8.00    -0.27420    
 -24.00   9.00    -0.31637    
 -24.00  10.00    -0.34454    
 -24.00  11.00    -0.35745    
 -24.00  12.00    -0.35643    
 -24.00  13.00    -0.34431    
 -24.00  14.00    -0.32468    
 -24.00  15.00    -0.30161    
 -24.00  16.00    -0.27965    
 -24.00  17.00    -0.26394    
 -24.00  18.00    -0.25992    
