-157.00 -77.00    -0.19304E-01
-157.00 -76.00     0.19200E-01
-157.00 -75.00     0.45518E-01
-157.00 -74.00     0.72867E-01
-157.00 -73.00     0.10623    
-157.00 -72.00     0.14018    
-157.00 -71.00     0.16111    
-157.00 -70.00     0.15175    
-157.00 -69.00     0.10031    
-157.00 -68.00     0.65654E-02
-157.00 -67.00    -0.11544    
-157.00 -66.00    -0.24021    
-157.00 -65.00    -0.33638    
-157.00 -64.00    -0.37691    
-157.00 -63.00    -0.34618    
-157.00 -62.00    -0.24636    
-157.00 -61.00    -0.95143E-01
-157.00 -60.00     0.77357E-01
-157.00 -59.00     0.23865    
-157.00 -58.00     0.36254    
-157.00 -57.00     0.43594    
-157.00 -56.00     0.46146    
-157.00 -55.00     0.45428    
-157.00 -54.00     0.43586    
-157.00 -53.00     0.42563    
-157.00 -52.00     0.43304    
-157.00 -51.00     0.45556    
-157.00 -50.00     0.47853    
-157.00 -49.00     0.48151    
-157.00 -48.00     0.44527    
-157.00 -47.00     0.35961    
-157.00 -46.00     0.22746    
-157.00 -45.00     0.64935E-01
-157.00 -44.00    -0.10262    
-157.00 -43.00    -0.24819    
-157.00 -42.00    -0.35066    
-157.00 -41.00    -0.40072    
-157.00 -40.00    -0.40271    
-157.00 -39.00    -0.37246    
-157.00 -38.00    -0.33130    
-157.00 -37.00    -0.29875    
-157.00 -36.00    -0.28604    
-157.00 -35.00    -0.29258    
-157.00 -34.00    -0.30662    
-157.00 -33.00    -0.30960    
-157.00 -32.00    -0.28290    
-157.00 -31.00    -0.21486    
-157.00 -30.00    -0.10572    
-157.00 -29.00     0.31022E-01
-157.00 -28.00     0.17110    
-157.00 -27.00     0.28536    
-157.00 -26.00     0.34704    
-157.00 -25.00     0.33866    
-157.00 -24.00     0.25638    
-157.00 -23.00     0.11103    
-157.00 -22.00    -0.74552E-01
-157.00 -21.00    -0.27082    
-157.00 -20.00    -0.44811    
-157.00 -19.00    -0.58263    
-157.00 -18.00    -0.66064    
-157.00 -17.00    -0.67988    
-157.00 -16.00    -0.64836    
-157.00 -15.00    -0.58100    
-157.00 -14.00    -0.49547    
-157.00 -13.00    -0.40806    
-157.00 -12.00    -0.33077    
-157.00 -11.00    -0.26998    
-157.00 -10.00    -0.22674    
-157.00  -9.00    -0.19831    
-157.00  -8.00    -0.18020    
-157.00  -7.00    -0.16818    
-157.00  -6.00    -0.15948    
-157.00  -5.00    -0.15327    
-157.00  -4.00    -0.15009    
-157.00  -3.00    -0.15089    
-157.00  -2.00    -0.15587    
-157.00  -1.00    -0.16380    
-157.00   0.00    -0.17199    
-157.00   1.00    -0.17707    
-157.00   2.00    -0.17626    
-157.00   3.00    -0.16883    
-157.00   4.00    -0.15714    
-157.00   5.00    -0.14667    
-157.00   6.00    -0.14505    
-157.00   7.00    -0.15997    
-157.00   8.00    -0.19661    
-157.00   9.00    -0.25526    
-157.00  10.00    -0.33007    
-157.00  11.00    -0.40937    
-157.00  12.00    -0.47791    
-157.00  13.00    -0.52054    
-157.00  14.00    -0.52631    
-157.00  15.00    -0.49206    
-157.00  16.00    -0.42396    
-157.00  17.00    -0.33670    
-157.00  18.00    -0.24995    
-157.00  19.00    -0.18318    
-157.00  20.00    -0.15014    
-157.00  21.00    -0.15468    
-157.00  22.00    -0.18928    
-157.00  23.00    -0.23702    
-157.00  24.00    -0.27641    
-157.00  25.00    -0.28794    
-157.00  26.00    -0.26025    
-157.00  27.00    -0.19404    
-157.00  28.00    -0.10227    
-157.00  29.00    -0.65374E-02
-157.00  30.00     0.69510E-01
-157.00  31.00     0.10775    
-157.00  32.00     0.10168    
-157.00  33.00     0.59085E-01
-157.00  34.00     0.22455E-03
-157.00  35.00    -0.48134E-01
-157.00  36.00    -0.61064E-01
-157.00  37.00    -0.23717E-01
-157.00  38.00     0.63201E-01
-157.00  39.00     0.18254    
-157.00  40.00     0.30486    
-157.00  41.00     0.39662    
-157.00  42.00     0.42985    
-157.00  43.00     0.39063    
-157.00  44.00     0.28359    
-157.00  45.00     0.13109    
-157.00  46.00    -0.32514E-01
-157.00  47.00    -0.17050    
-157.00  48.00    -0.25361    
-157.00  49.00    -0.26761    
-157.00  50.00    -0.21701    
-157.00  51.00    -0.12281    
-157.00  52.00    -0.16209E-01
-157.00  53.00     0.70716E-01
-157.00  54.00     0.11323    
-157.00  55.00     0.10046    
-157.00  56.00     0.37231E-01
-157.00  57.00    -0.58412E-01
-157.00  58.00    -0.16094    
-157.00  59.00    -0.24436    
-157.00  60.00    -0.28881    
-157.00  61.00    -0.28395    
-157.00  62.00    -0.23033    
-157.00  63.00    -0.13783    
-157.00  64.00    -0.21136E-01
-157.00  65.00     0.10312    
-157.00  66.00     0.21960    
-157.00  67.00     0.31622    
-157.00  68.00     0.38399    
-157.00  69.00     0.41738    
-157.00  70.00     0.41416    
-157.00  71.00     0.37595    
-157.00  72.00     0.30829    
-157.00  73.00     0.22286    
-157.00  74.00     0.13516    
-157.00  75.00     0.63378E-01
-157.00  76.00     0.24949E-01
-157.00  77.00     0.30080E-01
-157.00  78.00     0.79836E-01
-157.00  79.00     0.16345    
-157.00  80.00     0.25806    
-157.00  81.00     0.33459    
-157.00  82.00     0.36448    
-157.00  83.00     0.32590    
-157.00  84.00     0.21184    
-157.00  85.00     0.33459E-01
-157.00  86.00    -0.18659    
-157.00  87.00    -0.41290    
-157.00  88.00    -0.61133    
-157.00  89.00    -0.75400    
-156.00 -89.00     0.12348    
-156.00 -88.00    -0.13108E-01
-156.00 -87.00    -0.20153    
-156.00 -86.00    -0.39876    
-156.00 -85.00    -0.55902    
-156.00 -84.00    -0.64814    
-156.00 -83.00    -0.65304    
-156.00 -82.00    -0.58055    
-156.00 -81.00    -0.45638    
-156.00 -80.00    -0.31366    
-156.00 -79.00    -0.18353    
-156.00 -78.00    -0.86194E-01
-156.00 -77.00    -0.25864E-01
-156.00 -76.00     0.58125E-02
-156.00 -75.00     0.24934E-01
-156.00 -74.00     0.46394E-01
-156.00 -73.00     0.76938E-01
-156.00 -72.00     0.11220    
-156.00 -71.00     0.13931    
-156.00 -70.00     0.14025    
-156.00 -69.00     0.10191    
-156.00 -68.00     0.22097E-01
-156.00 -67.00    -0.87204E-01
-156.00 -66.00    -0.20218    
-156.00 -65.00    -0.29256    
-156.00 -64.00    -0.33164    
-156.00 -63.00    -0.30269    
-156.00 -62.00    -0.20666    
-156.00 -61.00    -0.59645E-01
-156.00 -60.00     0.10973    
-156.00 -59.00     0.26990    
-156.00 -58.00     0.39488    
-156.00 -57.00     0.47099    
-156.00 -56.00     0.49975    
-156.00 -55.00     0.49484    
-156.00 -54.00     0.47634    
-156.00 -53.00     0.46272    
-156.00 -52.00     0.46323    
-156.00 -51.00     0.47584    
-156.00 -50.00     0.48708    
-156.00 -49.00     0.47809    
-156.00 -48.00     0.43100    
-156.00 -47.00     0.33659    
-156.00 -46.00     0.19779    
-156.00 -45.00     0.29716E-01
-156.00 -44.00    -0.14428    
-156.00 -43.00    -0.29959    
-156.00 -42.00    -0.41738    
-156.00 -41.00    -0.48979    
-156.00 -40.00    -0.52117    
-156.00 -39.00    -0.52559    
-156.00 -38.00    -0.52094    
-156.00 -37.00    -0.52218    
-156.00 -36.00    -0.53564    
-156.00 -35.00    -0.55662    
-156.00 -34.00    -0.57086    
-156.00 -33.00    -0.55953    
-156.00 -32.00    -0.50607    
-156.00 -31.00    -0.40274    
-156.00 -30.00    -0.25467    
-156.00 -29.00    -0.80165E-01
-156.00 -28.00     0.92844E-01
-156.00 -27.00     0.23332    
-156.00 -26.00     0.31459    
-156.00 -25.00     0.32081    
-156.00 -24.00     0.25062    
-156.00 -23.00     0.11712    
-156.00 -22.00    -0.55577E-01
-156.00 -21.00    -0.23811    
-156.00 -20.00    -0.40241    
-156.00 -19.00    -0.52726    
-156.00 -18.00    -0.60157    
-156.00 -17.00    -0.62503    
-156.00 -16.00    -0.60621    
-156.00 -15.00    -0.55902    
-156.00 -14.00    -0.49874    
-156.00 -13.00    -0.43851    
-156.00 -12.00    -0.38721    
-156.00 -11.00    -0.34886    
-156.00 -10.00    -0.32340    
-156.00  -9.00    -0.30821    
-156.00  -8.00    -0.29991    
-156.00  -7.00    -0.29581    
-156.00  -6.00    -0.29454    
-156.00  -5.00    -0.29611    
-156.00  -4.00    -0.30119    
-156.00  -3.00    -0.31028    
-156.00  -2.00    -0.32291    
-156.00  -1.00    -0.33728    
-156.00   0.00    -0.35045    
-156.00   1.00    -0.35913    
-156.00   2.00    -0.36070    
-156.00   3.00    -0.35438    
-156.00   4.00    -0.34193    
-156.00   5.00    -0.32776    
-156.00   6.00    -0.31810    
-156.00   7.00    -0.31952    
-156.00   8.00    -0.33701    
-156.00   9.00    -0.37210    
-156.00  10.00    -0.42177    
-156.00  11.00    -0.47846    
-156.00  12.00    -0.53143    
-156.00  13.00    -0.56930    
-156.00  14.00    -0.58301    
-156.00  15.00    -0.56856    
-156.00  16.00    -0.52845    
-156.00  17.00    -0.47141    
-156.00  18.00    -0.41013    
-156.00  19.00    -0.35780    
-156.00  20.00    -0.32408    
-156.00  21.00    -0.31209    
-156.00  22.00    -0.31725    
-156.00  23.00    -0.32852    
-156.00  24.00    -0.33194    
-156.00  25.00    -0.31529    
-156.00  26.00    -0.27253    
-156.00  27.00    -0.20645    
-156.00  28.00    -0.12854    
-156.00  29.00    -0.55836E-01
-156.00  30.00    -0.56220E-02
-156.00  31.00     0.10451E-01
-156.00  32.00    -0.90857E-02
-156.00  33.00    -0.53959E-01
-156.00  34.00    -0.10432    
-156.00  35.00    -0.13624    
-156.00  36.00    -0.12904    
-156.00  37.00    -0.72223E-01
-156.00  38.00     0.30225E-01
-156.00  39.00     0.15967    
-156.00  40.00     0.28710    
-156.00  41.00     0.38081    
-156.00  42.00     0.41522    
-156.00  43.00     0.37843    
-156.00  44.00     0.27591    
-156.00  45.00     0.12946    
-156.00  46.00    -0.28388E-01
-156.00  47.00    -0.16331    
-156.00  48.00    -0.24829    
-156.00  49.00    -0.27037    
-156.00  50.00    -0.23378    
-156.00  51.00    -0.15790    
-156.00  52.00    -0.71089E-01
-156.00  53.00    -0.22201E-02
-156.00  54.00     0.26890E-01
-156.00  55.00     0.72475E-02
-156.00  56.00    -0.55759E-01
-156.00  57.00    -0.14499    
-156.00  58.00    -0.23668    
-156.00  59.00    -0.30721    
-156.00  60.00    -0.33884    
-156.00  61.00    -0.32273    
-156.00  62.00    -0.26011    
-156.00  63.00    -0.16069    
-156.00  64.00    -0.38386E-01
-156.00  65.00     0.91087E-01
-156.00  66.00     0.21319    
-156.00  67.00     0.31593    
-156.00  68.00     0.39019    
-156.00  69.00     0.42969    
-156.00  70.00     0.43132    
-156.00  71.00     0.39608    
-156.00  72.00     0.32897    
-156.00  73.00     0.24187    
-156.00  74.00     0.15091    
-156.00  75.00     0.75211E-01
-156.00  76.00     0.32877E-01
-156.00  77.00     0.35084E-01
-156.00  78.00     0.83142E-01
-156.00  79.00     0.16622    
-156.00  80.00     0.26114    
-156.00  81.00     0.33815    
-156.00  82.00     0.36821    
-156.00  83.00     0.32937    
-156.00  84.00     0.21440    
-156.00  85.00     0.34666E-01
-156.00  86.00    -0.18658    
-156.00  87.00    -0.41363    
-156.00  88.00    -0.61223    
-156.00  89.00    -0.75452    
-155.00 -89.00     0.12353    
-155.00 -88.00    -0.13545E-01
-155.00 -87.00    -0.20300    
-155.00 -86.00    -0.40151    
-155.00 -85.00    -0.56270    
-155.00 -84.00    -0.65213    
-155.00 -83.00    -0.65597    
-155.00 -82.00    -0.58226    
-155.00 -81.00    -0.45635    
-155.00 -80.00    -0.31264    
-155.00 -79.00    -0.18309    
-155.00 -78.00    -0.88645E-01
-155.00 -77.00    -0.33577E-01
-155.00 -76.00    -0.89897E-02
-155.00 -75.00     0.26168E-02
-155.00 -74.00     0.17863E-01
-155.00 -73.00     0.45344E-01
-155.00 -72.00     0.81953E-01
-155.00 -71.00     0.11547    
-155.00 -70.00     0.12742    
-155.00 -69.00     0.10323    
-155.00 -68.00     0.38616E-01
-155.00 -67.00    -0.56809E-01
-155.00 -66.00    -0.16129    
-155.00 -65.00    -0.24602    
-155.00 -64.00    -0.28485    
-155.00 -63.00    -0.26016    
-155.00 -62.00    -0.17155    
-155.00 -61.00    -0.33188E-01
-155.00 -60.00     0.12821    
-155.00 -59.00     0.28251    
-155.00 -58.00     0.40438    
-155.00 -57.00     0.47986    
-155.00 -56.00     0.50936    
-155.00 -55.00     0.50499    
-155.00 -54.00     0.48513    
-155.00 -53.00     0.46689    
-155.00 -52.00     0.45911    
-155.00 -51.00     0.46007    
-155.00 -50.00     0.45757    
-155.00 -49.00     0.43457    
-155.00 -48.00     0.37495    
-155.00 -47.00     0.27093    
-155.00 -46.00     0.12580    
-155.00 -45.00    -0.45974E-01
-155.00 -44.00    -0.22284    
-155.00 -43.00    -0.38260    
-155.00 -42.00    -0.50882    
-155.00 -41.00    -0.59530    
-155.00 -40.00    -0.64680    
-155.00 -39.00    -0.67610    
-155.00 -38.00    -0.69830    
-155.00 -37.00    -0.72454    
-155.00 -36.00    -0.75714    
-155.00 -35.00    -0.78814    
-155.00 -34.00    -0.80150    
-155.00 -33.00    -0.77860    
-155.00 -32.00    -0.70498    
-155.00 -31.00    -0.57634    
-155.00 -30.00    -0.40172    
-155.00 -29.00    -0.20283    
-155.00 -28.00    -0.96358E-02
-155.00 -27.00     0.14649    
-155.00 -26.00     0.24017    
-155.00 -25.00     0.25789    
-155.00 -24.00     0.20070    
-155.00 -23.00     0.83321E-01
-155.00 -22.00    -0.70002E-01
-155.00 -21.00    -0.23147    
-155.00 -20.00    -0.37593    
-155.00 -19.00    -0.48562    
-155.00 -18.00    -0.55253    
-155.00 -17.00    -0.57809    
-155.00 -16.00    -0.57073    
-155.00 -15.00    -0.54236    
-155.00 -14.00    -0.50481    
-155.00 -13.00    -0.46728    
-155.00 -12.00    -0.43521    
-155.00 -11.00    -0.41046    
-155.00 -10.00    -0.39253    
-155.00  -9.00    -0.38004    
-155.00  -8.00    -0.37196    
-155.00  -7.00    -0.36829    
-155.00  -6.00    -0.36990    
-155.00  -5.00    -0.37796    
-155.00  -4.00    -0.39306    
-155.00  -3.00    -0.41452    
-155.00  -2.00    -0.44010    
-155.00  -1.00    -0.46614    
-155.00   0.00    -0.48828    
-155.00   1.00    -0.50239    
-155.00   2.00    -0.50561    
-155.00   3.00    -0.49722    
-155.00   4.00    -0.47905    
-155.00   5.00    -0.45542    
-155.00   6.00    -0.43239    
-155.00   7.00    -0.41652    
-155.00   8.00    -0.41337    
-155.00   9.00    -0.42600    
-155.00  10.00    -0.45392    
-155.00  11.00    -0.49285    
-155.00  12.00    -0.53545    
-155.00  13.00    -0.57290    
-155.00  14.00    -0.59705    
-155.00  15.00    -0.60257    
-155.00  16.00    -0.58838    
-155.00  17.00    -0.55796    
-155.00  18.00    -0.51825    
-155.00  19.00    -0.47750    
-155.00  20.00    -0.44260    
-155.00  21.00    -0.41678    
-155.00  22.00    -0.39858    
-155.00  23.00    -0.38243    
-155.00  24.00    -0.36075    
-155.00  25.00    -0.32713    
-155.00  26.00    -0.27928    
-155.00  27.00    -0.22081    
-155.00  28.00    -0.16090    
-155.00  29.00    -0.11192    
-155.00  30.00    -0.85316E-01
-155.00  31.00    -0.87302E-01
-155.00  32.00    -0.11562    
-155.00  33.00    -0.15879    
-155.00  34.00    -0.19836    
-155.00  35.00    -0.21379    
-155.00  36.00    -0.18866    
-155.00  37.00    -0.11637    
-155.00  38.00    -0.33850E-02
-155.00  39.00     0.13110    
-155.00  40.00     0.25936    
-155.00  41.00     0.35215    
-155.00  42.00     0.38659    
-155.00  43.00     0.35275    
-155.00  44.00     0.25663    
-155.00  45.00     0.11901    
-155.00  46.00    -0.30036E-01
-155.00  47.00    -0.15905    
-155.00  48.00    -0.24360    
-155.00  49.00    -0.27226    
-155.00  50.00    -0.24899    
-155.00  51.00    -0.19136    
-155.00  52.00    -0.12466    
-155.00  53.00    -0.74340E-01
-155.00  54.00    -0.59037E-01
-155.00  55.00    -0.85703E-01
-155.00  56.00    -0.14834    
-155.00  57.00    -0.23072    
-155.00  58.00    -0.31099    
-155.00  59.00    -0.36802    
-155.00  60.00    -0.38638    
-155.00  61.00    -0.35887    
-155.00  62.00    -0.28740    
-155.00  63.00    -0.18150    
-155.00  64.00    -0.54265E-01
-155.00  65.00     0.79672E-01
-155.00  66.00     0.20671    
-155.00  67.00     0.31512    
-155.00  68.00     0.39573    
-155.00  69.00     0.44155    
-155.00  70.00     0.44855    
-155.00  71.00     0.41693    
-155.00  72.00     0.35116    
-155.00  73.00     0.26307    
-155.00  74.00     0.16935    
-155.00  75.00     0.89953E-01
-155.00  76.00     0.43640E-01
-155.00  77.00     0.42595E-01
-155.00  78.00     0.88469E-01
-155.00  79.00     0.17042    
-155.00  80.00     0.26507    
-155.00  81.00     0.34207    
-155.00  82.00     0.37192    
-155.00  83.00     0.33262    
-155.00  84.00     0.21668    
-155.00  85.00     0.35589E-01
-155.00  86.00    -0.18678    
-155.00  87.00    -0.41449    
-155.00  88.00    -0.61318    
-155.00  89.00    -0.75507    
-154.00 -89.00     0.12360    
-154.00 -88.00    -0.13892E-01
-154.00 -87.00    -0.20430    
-154.00 -86.00    -0.40402    
-154.00 -85.00    -0.56615    
-154.00 -84.00    -0.65597    
-154.00 -83.00    -0.65889    
-154.00 -82.00    -0.58413    
-154.00 -81.00    -0.45668    
-154.00 -80.00    -0.31213    
-154.00 -79.00    -0.18333    
-154.00 -78.00    -0.91898E-01
-154.00 -77.00    -0.42214E-01
-154.00 -76.00    -0.24887E-01
-154.00 -75.00    -0.21032E-01
-154.00 -74.00    -0.12273E-01
-154.00 -73.00     0.11902E-01
-154.00 -72.00     0.49817E-01
-154.00 -71.00     0.89858E-01
-154.00 -70.00     0.11327    
-154.00 -69.00     0.10402    
-154.00 -68.00     0.55554E-01
-154.00 -67.00    -0.25153E-01
-154.00 -66.00    -0.11875    
-154.00 -65.00    -0.19826    
-154.00 -64.00    -0.23821    
-154.00 -63.00    -0.22045    
-154.00 -62.00    -0.14304    
-154.00 -61.00    -0.17950E-01
-154.00 -60.00     0.13043    
-154.00 -59.00     0.27394    
-154.00 -58.00     0.38838    
-154.00 -57.00     0.45983    
-154.00 -56.00     0.48777    
-154.00 -55.00     0.48265    
-154.00 -54.00     0.46089    
-154.00 -53.00     0.43786    
-154.00 -52.00     0.42162    
-154.00 -51.00     0.41043    
-154.00 -50.00     0.39322    
-154.00 -49.00     0.35481    
-154.00 -48.00     0.28115    
-154.00 -47.00     0.16624    
-154.00 -46.00     0.14324E-01
-154.00 -45.00    -0.16020    
-154.00 -44.00    -0.33706    
-154.00 -43.00    -0.49596    
-154.00 -42.00    -0.62264    
-154.00 -41.00    -0.71255    
-154.00 -40.00    -0.77118    
-154.00 -39.00    -0.81069    
-154.00 -38.00    -0.84444    
-154.00 -37.00    -0.88106    
-154.00 -36.00    -0.92038    
-154.00 -35.00    -0.95258    
-154.00 -34.00    -0.96109    
-154.00 -33.00    -0.92818    
-154.00 -32.00    -0.84155    
-154.00 -31.00    -0.69968    
-154.00 -30.00    -0.51418    
-154.00 -29.00    -0.30832    
-154.00 -28.00    -0.11210    
-154.00 -27.00     0.44753E-01
-154.00 -26.00     0.13968    
-154.00 -25.00     0.16237    
-154.00 -24.00     0.11645    
-154.00 -23.00     0.17708E-01
-154.00 -22.00    -0.11052    
-154.00 -21.00    -0.24332    
-154.00 -20.00    -0.35973    
-154.00 -19.00    -0.44648    
-154.00 -18.00    -0.49921    
-154.00 -17.00    -0.52117    
-154.00 -16.00    -0.52037    
-154.00 -15.00    -0.50611    
-154.00 -14.00    -0.48618    
-154.00 -13.00    -0.46536    
-154.00 -12.00    -0.44541    
-154.00 -11.00    -0.42618    
-154.00 -10.00    -0.40717    
-154.00  -9.00    -0.38892    
-154.00  -8.00    -0.37352    
-154.00  -7.00    -0.36431    
-154.00  -6.00    -0.36486    
-154.00  -5.00    -0.37760    
-154.00  -4.00    -0.40279    
-154.00  -3.00    -0.43804    
-154.00  -2.00    -0.47853    
-154.00  -1.00    -0.51792    
-154.00   0.00    -0.54971    
-154.00   1.00    -0.56851    
-154.00   2.00    -0.57118    
-154.00   3.00    -0.55747    
-154.00   4.00    -0.53004    
-154.00   5.00    -0.49411    
-154.00   6.00    -0.45652    
-154.00   7.00    -0.42455    
-154.00   8.00    -0.40462    
-154.00   9.00    -0.40099    
-154.00  10.00    -0.41485    
-154.00  11.00    -0.44394    
-154.00  12.00    -0.48283    
-154.00  13.00    -0.52398    
-154.00  14.00    -0.55936    
-154.00  15.00    -0.58220    
-154.00  16.00    -0.58851    
-154.00  17.00    -0.57787    
-154.00  18.00    -0.55325    
-154.00  19.00    -0.51975    
-154.00  20.00    -0.48290    
-154.00  21.00    -0.44685    
-154.00  22.00    -0.41312    
-154.00  23.00    -0.38059    
-154.00  24.00    -0.34645    
-154.00  25.00    -0.30817    
-154.00  26.00    -0.26537    
-154.00  27.00    -0.22110    
-154.00  28.00    -0.18169    
-154.00  29.00    -0.15503    
-154.00  30.00    -0.14775    
-154.00  31.00    -0.16207    
-154.00  32.00    -0.19364    
-154.00  33.00    -0.23121    
-154.00  34.00    -0.25870    
-154.00  35.00    -0.25932    
-154.00  36.00    -0.22066    
-154.00  37.00    -0.13924    
-154.00  38.00    -0.22974E-01
-154.00  39.00     0.10948    
-154.00  40.00     0.23259    
-154.00  41.00     0.32019    
-154.00  42.00     0.35236    
-154.00  43.00     0.32100    
-154.00  44.00     0.23230    
-154.00  45.00     0.10545    
-154.00  46.00    -0.32418E-01
-154.00  47.00    -0.15321    
-154.00  48.00    -0.23536    
-154.00  49.00    -0.26914    
-154.00  50.00    -0.25828    
-154.00  51.00    -0.21845    
-154.00  52.00    -0.17176    
-154.00  53.00    -0.14007    
-154.00  54.00    -0.13870    
-154.00  55.00    -0.17249    
-154.00  56.00    -0.23480    
-154.00  57.00    -0.31035    
-154.00  58.00    -0.37926    
-154.00  59.00    -0.42300    
-154.00  60.00    -0.42848    
-154.00  61.00    -0.39020    
-154.00  62.00    -0.31080    
-154.00  63.00    -0.19954    
-154.00  64.00    -0.68582E-01
-154.00  65.00     0.68645E-01
-154.00  66.00     0.19962    
-154.00  67.00     0.31304    
-154.00  68.00     0.39972    
-154.00  69.00     0.45199    
-154.00  70.00     0.46489    
-154.00  71.00     0.43759    
-154.00  72.00     0.37404    
-154.00  73.00     0.28578    
-154.00  74.00     0.18990    
-154.00  75.00     0.10716    
-154.00  76.00     0.56924E-01
-154.00  77.00     0.52400E-01
-154.00  78.00     0.95677E-01
-154.00  79.00     0.17596    
-154.00  80.00     0.26978    
-154.00  81.00     0.34629    
-154.00  82.00     0.37560    
-154.00  83.00     0.33563    
-154.00  84.00     0.21866    
-154.00  85.00     0.36215E-01
-154.00  86.00    -0.18719    
-154.00  87.00    -0.41546    
-154.00  88.00    -0.61420    
-154.00  89.00    -0.75563    
-153.00 -89.00     0.12371    
-153.00 -88.00    -0.14148E-01
-153.00 -87.00    -0.20544    
-153.00 -86.00    -0.40631    
-153.00 -85.00    -0.56937    
-153.00 -84.00    -0.65965    
-153.00 -83.00    -0.66182    
-153.00 -82.00    -0.58615    
-153.00 -81.00    -0.45735    
-153.00 -80.00    -0.31208    
-153.00 -79.00    -0.18416    
-153.00 -78.00    -0.95791E-01
-153.00 -77.00    -0.51535E-01
-153.00 -76.00    -0.41543E-01
-153.00 -75.00    -0.45584E-01
-153.00 -74.00    -0.43524E-01
-153.00 -73.00    -0.22893E-01
-153.00 -72.00     0.16215E-01
-153.00 -71.00     0.62754E-01
-153.00 -70.00     0.97888E-01
-153.00 -69.00     0.10407    
-153.00 -68.00     0.72398E-01
-153.00 -67.00     0.69610E-02
-153.00 -66.00    -0.75607E-01
-153.00 -65.00    -0.15048    
-153.00 -64.00    -0.19299    
-153.00 -63.00    -0.18479    
-153.00 -62.00    -0.12228    
-153.00 -61.00    -0.14986E-01
-153.00 -60.00     0.11545    
-153.00 -59.00     0.24336    
-153.00 -58.00     0.34617    
-153.00 -57.00     0.41045    
-153.00 -56.00     0.43491    
-153.00 -55.00     0.42840    
-153.00 -54.00     0.40516    
-153.00 -53.00     0.37842    
-153.00 -52.00     0.35503    
-153.00 -51.00     0.33274    
-153.00 -50.00     0.30133    
-153.00 -49.00     0.24723    
-153.00 -48.00     0.15861    
-153.00 -47.00     0.31575E-01
-153.00 -46.00    -0.12810    
-153.00 -45.00    -0.30534    
-153.00 -44.00    -0.48027    
-153.00 -43.00    -0.63375    
-153.00 -42.00    -0.75309    
-153.00 -41.00    -0.83512    
-153.00 -40.00    -0.88628    
-153.00 -39.00    -0.91888    
-153.00 -38.00    -0.94581    
-153.00 -37.00    -0.97488    
-153.00 -36.00     -1.0053    
-153.00 -35.00     -1.0272    
-153.00 -34.00     -1.0250    
-153.00 -33.00    -0.98268    
-153.00 -32.00    -0.89011    
-153.00 -31.00    -0.74777    
-153.00 -30.00    -0.56832    
-153.00 -29.00    -0.37453    
-153.00 -28.00    -0.19418    
-153.00 -27.00    -0.53324E-01
-153.00 -26.00     0.29918E-01
-153.00 -25.00     0.49359E-01
-153.00 -24.00     0.11410E-01
-153.00 -23.00    -0.67530E-01
-153.00 -22.00    -0.16601    
-153.00 -21.00    -0.26317    
-153.00 -20.00    -0.34339    
-153.00 -19.00    -0.39889    
-153.00 -18.00    -0.42955    
-153.00 -17.00    -0.44077    
-153.00 -16.00    -0.44012    
-153.00 -15.00    -0.43413    
-153.00 -14.00    -0.42630    
-153.00 -13.00    -0.41681    
-153.00 -12.00    -0.40364    
-153.00 -11.00    -0.38468    
-153.00 -10.00    -0.35960    
-153.00  -9.00    -0.33103    
-153.00  -8.00    -0.30438    
-153.00  -7.00    -0.28647    
-153.00  -6.00    -0.28351    
-153.00  -5.00    -0.29913    
-153.00  -4.00    -0.33299    
-153.00  -3.00    -0.38063    
-153.00  -2.00    -0.43431    
-153.00  -1.00    -0.48474    
-153.00   0.00    -0.52311    
-153.00   1.00    -0.54290    
-153.00   2.00    -0.54105    
-153.00   3.00    -0.51837    
-153.00   4.00    -0.47919    
-153.00   5.00    -0.43043    
-153.00   6.00    -0.38039    
-153.00   7.00    -0.33736    
-153.00   8.00    -0.30839    
-153.00   9.00    -0.29818    
-153.00  10.00    -0.30829    
-153.00  11.00    -0.33689    
-153.00  12.00    -0.37890    
-153.00  13.00    -0.42684    
-153.00  14.00    -0.47219    
-153.00  15.00    -0.50703    
-153.00  16.00    -0.52558    
-153.00  17.00    -0.52533    
-153.00  18.00    -0.50730    
-153.00  19.00    -0.47550    
-153.00  20.00    -0.43553    
-153.00  21.00    -0.39296    
-153.00  22.00    -0.35190    
-153.00  23.00    -0.31430    
-153.00  24.00    -0.28020    
-153.00  25.00    -0.24875    
-153.00  26.00    -0.21962    
-153.00  27.00    -0.19410    
-153.00  28.00    -0.17533    
-153.00  29.00    -0.16735    
-153.00  30.00    -0.17329    
-153.00  31.00    -0.19315    
-153.00  32.00    -0.22225    
-153.00  33.00    -0.25100    
-153.00  34.00    -0.26651    
-153.00  35.00    -0.25585    
-153.00  36.00    -0.21005    
-153.00  37.00    -0.12776    
-153.00  38.00    -0.17134E-01
-153.00  39.00     0.10488    
-153.00  40.00     0.21584    
-153.00  41.00     0.29320    
-153.00  42.00     0.32009    
-153.00  43.00     0.29006    
-153.00  44.00     0.20905    
-153.00  45.00     0.94169E-01
-153.00  46.00    -0.30859E-01
-153.00  47.00    -0.14168    
-153.00  48.00    -0.21985    
-153.00  49.00    -0.25743    
-153.00  50.00    -0.25794    
-153.00  51.00    -0.23516    
-153.00  52.00    -0.20792    
-153.00  53.00    -0.19450    
-153.00  54.00    -0.20688    
-153.00  55.00    -0.24776    
-153.00  56.00    -0.30994    
-153.00  57.00    -0.37905    
-153.00  58.00    -0.43723    
-153.00  59.00    -0.46858    
-153.00  60.00    -0.46234    
-153.00  61.00    -0.41472    
-153.00  62.00    -0.32900    
-153.00  63.00    -0.21411    
-153.00  64.00    -0.81154E-01
-153.00  65.00     0.57789E-01
-153.00  66.00     0.19139    
-153.00  67.00     0.30893    
-153.00  68.00     0.40127    
-153.00  69.00     0.46007    
-153.00  70.00     0.47936    
-153.00  71.00     0.45714    
-153.00  72.00     0.39677    
-153.00  73.00     0.30926    
-153.00  74.00     0.21197    
-153.00  75.00     0.12636    
-153.00  76.00     0.72388E-01
-153.00  77.00     0.64260E-01
-153.00  78.00     0.10460    
-153.00  79.00     0.18272    
-153.00  80.00     0.27520    
-153.00  81.00     0.35077    
-153.00  82.00     0.37920    
-153.00  83.00     0.33837    
-153.00  84.00     0.22030    
-153.00  85.00     0.36529E-01
-153.00  86.00    -0.18783    
-153.00  87.00    -0.41657    
-153.00  88.00    -0.61527    
-153.00  89.00    -0.75620    
-152.00 -89.00     0.12383    
-152.00 -88.00    -0.14312E-01
-152.00 -87.00    -0.20640    
-152.00 -86.00    -0.40836    
-152.00 -85.00    -0.57235    
-152.00 -84.00    -0.66317    
-152.00 -83.00    -0.66477    
-152.00 -82.00    -0.58832    
-152.00 -81.00    -0.45834    
-152.00 -80.00    -0.31247    
-152.00 -79.00    -0.18549    
-152.00 -78.00    -0.10016    
-152.00 -77.00    -0.61286E-01
-152.00 -76.00    -0.58603E-01
-152.00 -75.00    -0.70591E-01
-152.00 -74.00    -0.75376E-01
-152.00 -73.00    -0.58514E-01
-152.00 -72.00    -0.18403E-01
-152.00 -71.00     0.34490E-01
-152.00 -70.00     0.81382E-01
-152.00 -69.00     0.10324    
-152.00 -68.00     0.88713E-01
-152.00 -67.00     0.38848E-01
-152.00 -66.00    -0.32715E-01
-152.00 -65.00    -0.10357    
-152.00 -64.00    -0.14999    
-152.00 -63.00    -0.15376    
-152.00 -62.00    -0.10952    
-152.00 -61.00    -0.24149E-01
-152.00 -60.00     0.83821E-01
-152.00 -59.00     0.19171    
-152.00 -58.00     0.27908    
-152.00 -57.00     0.33346    
-152.00 -56.00     0.35307    
-152.00 -55.00     0.34527    
-152.00 -54.00     0.32197    
-152.00 -53.00     0.29394    
-152.00 -52.00     0.26629    
-152.00 -51.00     0.23572    
-152.00 -50.00     0.19232    
-152.00 -49.00     0.12375    
-152.00 -48.00     0.20304E-01
-152.00 -47.00    -0.11964    
-152.00 -46.00    -0.28823    
-152.00 -45.00    -0.46892    
-152.00 -44.00    -0.64126    
-152.00 -43.00    -0.78622    
-152.00 -42.00    -0.89183    
-152.00 -41.00    -0.95590    
-152.00 -40.00    -0.98582    
-152.00 -39.00    -0.99479    
-152.00 -38.00    -0.99654    
-152.00 -37.00    -0.99986    
-152.00 -36.00     -1.0053    
-152.00 -35.00     -1.0051    
-152.00 -34.00    -0.98582    
-152.00 -33.00    -0.93418    
-152.00 -32.00    -0.84221    
-152.00 -31.00    -0.71148    
-152.00 -30.00    -0.55409    
-152.00 -29.00    -0.39032    
-152.00 -28.00    -0.24359    
-152.00 -27.00    -0.13439    
-152.00 -26.00    -0.75026E-01
-152.00 -25.00    -0.66821E-01
-152.00 -24.00    -0.10051    
-152.00 -23.00    -0.15954    
-152.00 -22.00    -0.22518    
-152.00 -21.00    -0.28156    
-152.00 -20.00    -0.31936    
-152.00 -19.00    -0.33694    
-152.00 -18.00    -0.33900    
-152.00 -17.00    -0.33338    
-152.00 -16.00    -0.32736    
-152.00 -15.00    -0.32482    
-152.00 -14.00    -0.32508    
-152.00 -13.00    -0.32376    
-152.00 -12.00    -0.31516    
-152.00 -11.00    -0.29517    
-152.00 -10.00    -0.26354    
-152.00  -9.00    -0.22477    
-152.00  -8.00    -0.18723    
-152.00  -7.00    -0.16083    
-152.00  -6.00    -0.15406    
-152.00  -5.00    -0.17132    
-152.00  -4.00    -0.21150    
-152.00  -3.00    -0.26793    
-152.00  -2.00    -0.33003    
-152.00  -1.00    -0.38578    
-152.00   0.00    -0.42449    
-152.00   1.00    -0.43903    
-152.00   2.00    -0.42710    
-152.00   3.00    -0.39134    
-152.00   4.00    -0.33847    
-152.00   5.00    -0.27774    
-152.00   6.00    -0.21921    
-152.00   7.00    -0.17212    
-152.00   8.00    -0.14356    
-152.00   9.00    -0.13754    
-152.00  10.00    -0.15456    
-152.00  11.00    -0.19155    
-152.00  12.00    -0.24227    
-152.00  13.00    -0.29828    
-152.00  14.00    -0.35027    
-152.00  15.00    -0.38970    
-152.00  16.00    -0.41037    
-152.00  17.00    -0.40961    
-152.00  18.00    -0.38871    
-152.00  19.00    -0.35244    
-152.00  20.00    -0.30771    
-152.00  21.00    -0.26186    
-152.00  22.00    -0.22086    
-152.00  23.00    -0.18820    
-152.00  24.00    -0.16466    
-152.00  25.00    -0.14900    
-152.00  26.00    -0.13923    
-152.00  27.00    -0.13397    
-152.00  28.00    -0.13319    
-152.00  29.00    -0.13802    
-152.00  30.00    -0.14965    
-152.00  31.00    -0.16775    
-152.00  32.00    -0.18902    
-152.00  33.00    -0.20676    
-152.00  34.00    -0.21183    
-152.00  35.00    -0.19493    
-152.00  36.00    -0.14977    
-152.00  37.00    -0.75929E-01
-152.00  38.00     0.19527E-01
-152.00  39.00     0.12244    
-152.00  40.00     0.21427    
-152.00  41.00     0.27640    
-152.00  42.00     0.29502    
-152.00  43.00     0.26499    
-152.00  44.00     0.19156    
-152.00  45.00     0.89297E-01
-152.00  46.00    -0.21856E-01
-152.00  47.00    -0.12155    
-152.00  48.00    -0.19455    
-152.00  49.00    -0.23475    
-152.00  50.00    -0.24550    
-152.00  51.00    -0.23866    
-152.00  52.00    -0.22989    
-152.00  53.00    -0.23390    
-152.00  54.00    -0.25946    
-152.00  55.00    -0.30723    
-152.00  56.00    -0.36947    
-152.00  57.00    -0.43276    
-152.00  58.00    -0.48129    
-152.00  59.00    -0.50173    
-152.00  60.00    -0.48557    
-152.00  61.00    -0.43067    
-152.00  62.00    -0.34086    
-152.00  63.00    -0.22460    
-152.00  64.00    -0.91821E-01
-152.00  65.00     0.46900E-01
-152.00  66.00     0.18152    
-152.00  67.00     0.30212    
-152.00  68.00     0.39955    
-152.00  69.00     0.46487    
-152.00  70.00     0.49103    
-152.00  71.00     0.47468    
-152.00  72.00     0.41851    
-152.00  73.00     0.33279    
-152.00  74.00     0.23497    
-152.00  75.00     0.14707    
-152.00  76.00     0.89665E-01
-152.00  77.00     0.77913E-01
-152.00  78.00     0.11506    
-152.00  79.00     0.19059    
-152.00  80.00     0.28125    
-152.00  81.00     0.35546    
-152.00  82.00     0.38269    
-152.00  83.00     0.34080    
-152.00  84.00     0.22159    
-152.00  85.00     0.36521E-01
-152.00  86.00    -0.18869    
-152.00  87.00    -0.41780    
-152.00  88.00    -0.61640    
-152.00  89.00    -0.75680    
-151.00 -89.00     0.12399    
-151.00 -88.00    -0.14384E-01
-151.00 -87.00    -0.20719    
-151.00 -86.00    -0.41016    
-151.00 -85.00    -0.57509    
-151.00 -84.00    -0.66652    
-151.00 -83.00    -0.66776    
-151.00 -82.00    -0.59065    
-151.00 -81.00    -0.45964    
-151.00 -80.00    -0.31324    
-151.00 -79.00    -0.18722    
-151.00 -78.00    -0.10483    
-151.00 -77.00    -0.71213E-01
-151.00 -76.00    -0.75710E-01
-151.00 -75.00    -0.95594E-01
-151.00 -74.00    -0.10729    
-151.00 -73.00    -0.94407E-01
-151.00 -72.00    -0.53564E-01
-151.00 -71.00     0.54316E-02
-151.00 -70.00     0.63916E-01
-151.00 -69.00     0.10143    
-151.00 -68.00     0.10415    
-151.00 -67.00     0.69952E-01
-151.00 -66.00     0.92892E-02
-151.00 -65.00    -0.58065E-01
-151.00 -64.00    -0.10954    
-151.00 -63.00    -0.12726    
-151.00 -62.00    -0.10407    
-151.00 -61.00    -0.44105E-01
-151.00 -60.00     0.37553E-01
-151.00 -59.00     0.12164    
-151.00 -58.00     0.19035    
-151.00 -57.00     0.23265    
-151.00 -56.00     0.24664    
-151.00 -55.00     0.23835    
-151.00 -54.00     0.21733    
-151.00 -53.00     0.19164    
-151.00 -52.00     0.16411    
-151.00 -51.00     0.12977    
-151.00 -50.00     0.78377E-01
-151.00 -49.00    -0.17540E-02
-151.00 -48.00    -0.11851    
-151.00 -47.00    -0.27127    
-151.00 -46.00    -0.44975    
-151.00 -45.00    -0.63523    
-151.00 -44.00    -0.80563    
-151.00 -43.00    -0.94098    
-151.00 -42.00     -1.0290    
-151.00 -41.00     -1.0680    
-151.00 -40.00     -1.0660    
-151.00 -39.00     -1.0378    
-151.00 -38.00    -0.99909    
-151.00 -37.00    -0.96127    
-151.00 -36.00    -0.92817    
-151.00 -35.00    -0.89561    
-151.00 -34.00    -0.85407    
-151.00 -33.00    -0.79339    
-151.00 -32.00    -0.70767    
-151.00 -31.00    -0.59868    
-151.00 -30.00    -0.47651    
-151.00 -29.00    -0.35715    
-151.00 -28.00    -0.25796    
-151.00 -27.00    -0.19243    
-151.00 -26.00    -0.16618    
-151.00 -25.00    -0.17533    
-151.00 -24.00    -0.20794    
-151.00 -23.00    -0.24786    
-151.00 -22.00    -0.27971    
-151.00 -21.00    -0.29330    
-151.00 -20.00    -0.28606    
-151.00 -19.00    -0.26285    
-151.00 -18.00    -0.23334    
-151.00 -17.00    -0.20792    
-151.00 -16.00    -0.19380    
-151.00 -15.00    -0.19244    
-151.00 -14.00    -0.19929    
-151.00 -13.00    -0.20579    
-151.00 -12.00    -0.20279    
-151.00 -11.00    -0.18421    
-151.00 -10.00    -0.14964    
-151.00  -9.00    -0.10495    
-151.00  -8.00    -0.60753E-01
-151.00  -7.00    -0.29262E-01
-151.00  -6.00    -0.20513E-01
-151.00  -5.00    -0.39228E-01
-151.00  -4.00    -0.83215E-01
-151.00  -3.00    -0.14377    
-151.00  -2.00    -0.20783    
-151.00  -1.00    -0.26129    
-151.00   0.00    -0.29234    
-151.00   1.00    -0.29407    
-151.00   2.00    -0.26578    
-151.00   3.00    -0.21269    
-151.00   4.00    -0.14447    
-151.00   5.00    -0.73061E-01
-151.00   6.00    -0.10320E-01
-151.00   7.00     0.33949E-01
-151.00   8.00     0.53385E-01
-151.00   9.00     0.45772E-01
-151.00  10.00     0.13111E-01
-151.00  11.00    -0.38839E-01
-151.00  12.00    -0.10147    
-151.00  13.00    -0.16462    
-151.00  14.00    -0.21813    
-151.00  15.00    -0.25357    
-151.00  16.00    -0.26571    
-151.00  17.00    -0.25358    
-151.00  18.00    -0.22064    
-151.00  19.00    -0.17401    
-151.00  20.00    -0.12284    
-151.00  21.00    -0.76222E-01
-151.00  22.00    -0.41094E-01
-151.00  23.00    -0.20895E-01
-151.00  24.00    -0.15209E-01
-151.00  25.00    -0.20555E-01
-151.00  26.00    -0.31994E-01
-151.00  27.00    -0.44961E-01
-151.00  28.00    -0.56652E-01
-151.00  29.00    -0.66466E-01
-151.00  30.00    -0.75364E-01
-151.00  31.00    -0.84422E-01
-151.00  32.00    -0.93244E-01
-151.00  33.00    -0.98943E-01
-151.00  34.00    -0.96292E-01
-151.00  35.00    -0.79153E-01
-151.00  36.00    -0.42834E-01
-151.00  37.00     0.13435E-01
-151.00  38.00     0.84869E-01
-151.00  39.00     0.16109    
-151.00  40.00     0.22798    
-151.00  41.00     0.27102    
-151.00  42.00     0.27919    
-151.00  43.00     0.24827    
-151.00  44.00     0.18235    
-151.00  45.00     0.93057E-01
-151.00  46.00    -0.36467E-02
-151.00  47.00    -0.91518E-01
-151.00  48.00    -0.15854    
-151.00  49.00    -0.20032    
-151.00  50.00    -0.22007    
-151.00  51.00    -0.22778    
-151.00  52.00    -0.23602    
-151.00  53.00    -0.25613    
-151.00  54.00    -0.29386    
-151.00  55.00    -0.34798    
-151.00  56.00    -0.41037    
-151.00  57.00    -0.46856    
-151.00  58.00    -0.50877    
-151.00  59.00    -0.52014    
-151.00  60.00    -0.49632    
-151.00  61.00    -0.43668    
-151.00  62.00    -0.34549    
-151.00  63.00    -0.23054    
-151.00  64.00    -0.10047    
-151.00  65.00     0.35785E-01
-151.00  66.00     0.16958    
-151.00  67.00     0.29198    
-151.00  68.00     0.39382    
-151.00  69.00     0.46556    
-151.00  70.00     0.49902    
-151.00  71.00     0.48937    
-151.00  72.00     0.43847    
-151.00  73.00     0.35564    
-151.00  74.00     0.25827    
-151.00  75.00     0.16878    
-151.00  76.00     0.10837    
-151.00  77.00     0.93076E-01
-151.00  78.00     0.12685    
-151.00  79.00     0.19942    
-151.00  80.00     0.28784    
-151.00  81.00     0.36029    
-151.00  82.00     0.38603    
-151.00  83.00     0.34290    
-151.00  84.00     0.22248    
-151.00  85.00     0.36178E-01
-151.00  86.00    -0.18978    
-151.00  87.00    -0.41917    
-151.00  88.00    -0.61759    
-151.00  89.00    -0.75741    
-150.00 -89.00     0.12417    
-150.00 -88.00    -0.14362E-01
-150.00 -87.00    -0.20781    
-150.00 -86.00    -0.41173    
-150.00 -85.00    -0.57759    
-150.00 -84.00    -0.66969    
-150.00 -83.00    -0.67080    
-150.00 -82.00    -0.59311    
-150.00 -81.00    -0.46123    
-150.00 -80.00    -0.31435    
-150.00 -79.00    -0.18926    
-150.00 -78.00    -0.10964    
-150.00 -77.00    -0.81060E-01
-150.00 -76.00    -0.92503E-01
-150.00 -75.00    -0.12013    
-150.00 -74.00    -0.13874    
-150.00 -73.00    -0.13001    
-150.00 -72.00    -0.88769E-01
-150.00 -71.00    -0.24025E-01
-150.00 -70.00     0.45690E-01
-150.00 -69.00     0.98607E-01
-150.00 -68.00     0.11843    
-150.00 -67.00     0.99844E-01
-150.00 -66.00     0.49972E-01
-150.00 -65.00    -0.14211E-01
-150.00 -64.00    -0.71527E-01
-150.00 -63.00    -0.10456    
-150.00 -62.00    -0.10444    
-150.00 -61.00    -0.72461E-01
-150.00 -60.00    -0.20048E-01
-150.00 -59.00     0.37313E-01
-150.00 -58.00     0.84878E-01
-150.00 -57.00     0.11353    
-150.00 -56.00     0.12166    
-150.00 -55.00     0.11423    
-150.00 -54.00     0.98505E-01
-150.00 -53.00     0.79647E-01
-150.00 -52.00     0.57758E-01
-150.00 -51.00     0.25619E-01
-150.00 -50.00    -0.28119E-01
-150.00 -49.00    -0.11519    
-150.00 -48.00    -0.24219    
-150.00 -47.00    -0.40653    
-150.00 -46.00    -0.59532    
-150.00 -45.00    -0.78719    
-150.00 -44.00    -0.95754    
-150.00 -43.00     -1.0845    
-150.00 -42.00     -1.1544    
-150.00 -41.00     -1.1652    
-150.00 -40.00     -1.1257    
-150.00 -39.00     -1.0521    
-150.00 -38.00    -0.96319    
-150.00 -37.00    -0.87417    
-150.00 -36.00    -0.79361    
-150.00 -35.00    -0.72235    
-150.00 -34.00    -0.65560    
-150.00 -33.00    -0.58680    
-150.00 -32.00    -0.51183    
-150.00 -31.00    -0.43181    
-150.00 -30.00    -0.35361    
-150.00 -29.00    -0.28765    
-150.00 -28.00    -0.24410    
-150.00 -27.00    -0.22878    
-150.00 -26.00    -0.24036    
-150.00 -25.00    -0.27001    
-150.00 -24.00    -0.30366    
-150.00 -23.00    -0.32616    
-150.00 -22.00    -0.32600    
-150.00 -21.00    -0.29886    
-150.00 -20.00    -0.24890    
-150.00 -19.00    -0.18722    
-150.00 -18.00    -0.12811    
-150.00 -17.00    -0.84331E-01
-150.00 -16.00    -0.62996E-01
-150.00 -15.00    -0.63464E-01
-150.00 -14.00    -0.77851E-01
-150.00 -13.00    -0.93981E-01
-150.00 -12.00    -0.99720E-01
-150.00 -11.00    -0.87232E-01
-150.00 -10.00    -0.55730E-01
-150.00  -9.00    -0.11867E-01
-150.00  -8.00     0.32357E-01
-150.00  -7.00     0.63419E-01
-150.00  -6.00     0.70611E-01
-150.00  -5.00     0.49513E-01
-150.00  -4.00     0.35641E-02
-150.00  -3.00    -0.56684E-01
-150.00  -2.00    -0.11631    
-150.00  -1.00    -0.15993    
-150.00   0.00    -0.17553    
-150.00   1.00    -0.15737    
-150.00   2.00    -0.10709    
-150.00   3.00    -0.33031E-01
-150.00   4.00     0.51835E-01
-150.00   5.00     0.13283    
-150.00   6.00     0.19649    
-150.00   7.00     0.23290    
-150.00   8.00     0.23719    
-150.00   9.00     0.20988    
-150.00  10.00     0.15654    
-150.00  11.00     0.86635E-01
-150.00  12.00     0.11943E-01
-150.00  13.00    -0.55266E-01
-150.00  14.00    -0.10416    
-150.00  15.00    -0.12715    
-150.00  16.00    -0.12120    
-150.00  17.00    -0.88523E-01
-150.00  18.00    -0.36182E-01
-150.00  19.00     0.25270E-01
-150.00  20.00     0.83996E-01
-150.00  21.00     0.12946    
-150.00  22.00     0.15475    
-150.00  23.00     0.15796    
-150.00  24.00     0.14232    
-150.00  25.00     0.11492    
-150.00  26.00     0.84455E-01
-150.00  27.00     0.58709E-01
-150.00  28.00     0.42509E-01
-150.00  29.00     0.36845E-01
-150.00  30.00     0.39367E-01
-150.00  31.00     0.46028E-01
-150.00  32.00     0.53205E-01
-150.00  33.00     0.59486E-01
-150.00  34.00     0.66391E-01
-150.00  35.00     0.77716E-01
-150.00  36.00     0.97704E-01
-150.00  37.00     0.12872    
-150.00  38.00     0.16933    
-150.00  39.00     0.21362    
-150.00  40.00     0.25212    
-150.00  41.00     0.27422    
-150.00  42.00     0.27133    
-150.00  43.00     0.23961    
-150.00  44.00     0.18154    
-150.00  45.00     0.10554    
-150.00  46.00     0.23554E-01
-150.00  47.00    -0.52194E-01
-150.00  48.00    -0.11274    
-150.00  49.00    -0.15519    
-150.00  50.00    -0.18261    
-150.00  51.00    -0.20312    
-150.00  52.00    -0.22647    
-150.00  53.00    -0.26078    
-150.00  54.00    -0.30917    
-150.00  55.00    -0.36872    
-150.00  56.00    -0.43110    
-150.00  57.00    -0.48480    
-150.00  58.00    -0.51808    
-150.00  59.00    -0.52241    
-150.00  60.00    -0.49344    
-150.00  61.00    -0.43190    
-150.00  62.00    -0.34230    
-150.00  63.00    -0.23163    
-150.00  64.00    -0.10707    
-150.00  65.00     0.24267E-01
-150.00  66.00     0.15524    
-150.00  67.00     0.27800    
-150.00  68.00     0.38344    
-150.00  69.00     0.46142    
-150.00  70.00     0.50256    
-150.00  71.00     0.50045    
-150.00  72.00     0.45590    
-150.00  73.00     0.37714    
-150.00  74.00     0.28128    
-150.00  75.00     0.19101    
-150.00  76.00     0.12812    
-150.00  77.00     0.10946    
-150.00  78.00     0.13976    
-150.00  79.00     0.20907    
-150.00  80.00     0.29486    
-150.00  81.00     0.36518    
-150.00  82.00     0.38917    
-150.00  83.00     0.34462    
-150.00  84.00     0.22296    
-150.00  85.00     0.35488E-01
-150.00  86.00    -0.19111    
-150.00  87.00    -0.42067    
-150.00  88.00    -0.61883    
-150.00  89.00    -0.75804    
-149.00 -89.00     0.12437    
-149.00 -88.00    -0.14247E-01
-149.00 -87.00    -0.20826    
-149.00 -86.00    -0.41304    
-149.00 -85.00    -0.57983    
-149.00 -84.00    -0.67267    
-149.00 -83.00    -0.67387    
-149.00 -82.00    -0.59570    
-149.00 -81.00    -0.46308    
-149.00 -80.00    -0.31576    
-149.00 -79.00    -0.19151    
-149.00 -78.00    -0.11443    
-149.00 -77.00    -0.90575E-01
-149.00 -76.00    -0.10863    
-149.00 -75.00    -0.14374    
-149.00 -74.00    -0.16917    
-149.00 -73.00    -0.16474    
-149.00 -72.00    -0.12350    
-149.00 -71.00    -0.53460E-01
-149.00 -70.00     0.26947E-01
-149.00 -69.00     0.94785E-01
-149.00 -68.00     0.13137    
-149.00 -67.00     0.12821    
-149.00 -66.00     0.89067E-01
-149.00 -65.00     0.28000E-01
-149.00 -64.00    -0.35490E-01
-149.00 -63.00    -0.84456E-01
-149.00 -62.00    -0.10844    
-149.00 -61.00    -0.10596    
-149.00 -60.00    -0.84629E-01
-149.00 -59.00    -0.55932E-01
-149.00 -58.00    -0.31169E-01
-149.00 -57.00    -0.17132E-01
-149.00 -56.00    -0.14702E-01
-149.00 -55.00    -0.19661E-01
-149.00 -54.00    -0.26816E-01
-149.00 -53.00    -0.33941E-01
-149.00 -52.00    -0.44028E-01
-149.00 -51.00    -0.67062E-01
-149.00 -50.00    -0.11624    
-149.00 -49.00    -0.20414    
-149.00 -48.00    -0.33679    
-149.00 -47.00    -0.51012    
-149.00 -46.00    -0.70878    
-149.00 -45.00    -0.90853    
-149.00 -44.00     -1.0817    
-149.00 -43.00     -1.2035    
-149.00 -42.00     -1.2582    
-149.00 -41.00     -1.2426    
-149.00 -40.00     -1.1656    
-149.00 -39.00     -1.0452    
-149.00 -38.00    -0.90330    
-149.00 -37.00    -0.75991    
-149.00 -36.00    -0.62913    
-149.00 -35.00    -0.51763    
-149.00 -34.00    -0.42579    
-149.00 -33.00    -0.35071    
-149.00 -32.00    -0.28963    
-149.00 -31.00    -0.24233    
-149.00 -30.00    -0.21160    
-149.00 -29.00    -0.20162    
-149.00 -28.00    -0.21502    
-149.00 -27.00    -0.25006    
-149.00 -26.00    -0.29906    
-149.00 -25.00    -0.34905    
-149.00 -24.00    -0.38469    
-149.00 -23.00    -0.39252    
-149.00 -22.00    -0.36512    
-149.00 -21.00    -0.30384    
-149.00 -20.00    -0.21886    
-149.00 -19.00    -0.12659    
-149.00 -18.00    -0.45046E-01
-149.00 -17.00     0.11331E-01
-149.00 -16.00     0.35716E-01
-149.00 -15.00     0.30596E-01
-149.00 -14.00     0.65438E-02
-149.00 -13.00    -0.21498E-01
-149.00 -12.00    -0.39180E-01
-149.00 -11.00    -0.37359E-01
-149.00 -10.00    -0.14881E-01
-149.00  -9.00     0.21293E-01
-149.00  -8.00     0.58610E-01
-149.00  -7.00     0.83214E-01
-149.00  -6.00     0.84624E-01
-149.00  -5.00     0.59317E-01
-149.00  -4.00     0.12150E-01
-149.00  -3.00    -0.44753E-01
-149.00  -2.00    -0.95235E-01
-149.00  -1.00    -0.12346    
-149.00   0.00    -0.11810    
-149.00   1.00    -0.75277E-01
-149.00   2.00     0.52395E-03
-149.00   3.00     0.97572E-01
-149.00   4.00     0.19962    
-149.00   5.00     0.28944    
-149.00   6.00     0.35233    
-149.00   7.00     0.37871    
-149.00   8.00     0.36568    
-149.00   9.00     0.31708    
-149.00  10.00     0.24256    
-149.00  11.00     0.15571    
-149.00  12.00     0.71754E-01
-149.00  13.00     0.50725E-02
-149.00  14.00    -0.33155E-01
-149.00  15.00    -0.36805E-01
-149.00  16.00    -0.59297E-02
-149.00  17.00     0.53167E-01
-149.00  18.00     0.12902    
-149.00  19.00     0.20721    
-149.00  20.00     0.27327    
-149.00  21.00     0.31579    
-149.00  22.00     0.32890    
-149.00  23.00     0.31346    
-149.00  24.00     0.27667    
-149.00  25.00     0.23002    
-149.00  26.00     0.18620    
-149.00  27.00     0.15577    
-149.00  28.00     0.14454    
-149.00  29.00     0.15253    
-149.00  30.00     0.17455    
-149.00  31.00     0.20243    
-149.00  32.00     0.22786    
-149.00  33.00     0.24513    
-149.00  34.00     0.25263    
-149.00  35.00     0.25286    
-149.00  36.00     0.25080    
-149.00  37.00     0.25150    
-149.00  38.00     0.25766    
