 136.00 -85.00      4.3987    
 136.00 -84.00      4.4929    
 136.00 -83.00      4.5569    
 136.00 -82.00      4.6270    
 136.00 -81.00      4.7093    
 136.00 -80.00      4.8239    
 136.00 -79.00      4.9923    
 136.00 -78.00      5.2078    
 136.00 -77.00      5.4479    
 136.00 -76.00      5.6723    
 136.00 -75.00      5.8256    
 136.00 -74.00      5.8583    
 136.00 -73.00      5.7276    
 136.00 -72.00      5.4104    
 136.00 -71.00      4.9130    
 136.00 -70.00      4.2753    
 136.00 -69.00      3.5481    
 136.00 -68.00      2.7921    
 136.00 -67.00      2.0611    
 136.00 -66.00      1.3893    
 136.00 -65.00     0.78904    
 136.00 -64.00     0.25062    
 136.00 -63.00    -0.24960    
 136.00 -62.00    -0.74167    
 136.00 -61.00     -1.2458    
 136.00 -60.00     -1.7714    
 136.00 -59.00     -2.3109    
 136.00 -58.00     -2.8431    
 136.00 -57.00     -3.3421    
 136.00 -56.00     -3.7834    
 136.00 -55.00     -4.1503    
 136.00 -54.00     -4.4374    
 136.00 -53.00     -4.6473    
 136.00 -52.00     -4.7873    
 136.00 -51.00     -4.8621    
 136.00 -50.00     -4.8702    
 136.00 -49.00     -4.8022    
 136.00 -48.00     -4.6434    
 136.00 -47.00     -4.3797    
 136.00 -46.00     -4.0031    
 136.00 -45.00     -3.5179    
 136.00 -44.00     -2.9414    
 136.00 -43.00     -2.3026    
 136.00 -42.00     -1.6348    
 136.00 -41.00    -0.96923    
 136.00 -40.00    -0.32792    
 136.00 -39.00     0.27993    
 136.00 -38.00     0.85712    
 136.00 -37.00      1.4140    
 136.00 -36.00      1.9615    
 136.00 -35.00      2.5045    
 136.00 -34.00      3.0373    
 136.00 -33.00      3.5434    
 136.00 -32.00      3.9996    
 136.00 -31.00      4.3825    
 136.00 -30.00      4.6761    
 136.00 -29.00      4.8769    
 136.00 -28.00      4.9961    
 136.00 -27.00      5.0563    
 136.00 -26.00      5.0858    
 136.00 -25.00      5.1105    
 136.00 -24.00      5.1477    
 136.00 -23.00      5.2022    
 136.00 -22.00      5.2678    
 136.00 -21.00      5.3323    
 136.00 -20.00      5.3850    
 136.00 -19.00      5.4238    
 136.00 -18.00      5.4597    
 136.00 -17.00      5.5164    
 136.00 -16.00      5.6246    
 136.00 -15.00      5.8128    
 136.00 -14.00      6.0955    
 136.00 -13.00      6.4642    
 136.00 -12.00      6.8814    
 136.00 -11.00      7.2820    
 136.00 -10.00      7.5807    
 136.00  -9.00      7.6858    
 136.00  -8.00      7.5154    
 136.00  -7.00      7.0139    
 136.00  -6.00      6.1645    
 136.00  -5.00      4.9967    
 136.00  -4.00      3.5844    
 136.00  -3.00      2.0379    
 136.00  -2.00     0.48798    
 136.00  -1.00    -0.93245    
 136.00   0.00     -2.1084    
 136.00   1.00     -2.9596    
 136.00   2.00     -3.4518    
 136.00   3.00     -3.6000    
 136.00   4.00     -3.4643    
 136.00   5.00     -3.1370    
 136.00   6.00     -2.7256    
 136.00   7.00     -2.3333    
 136.00   8.00     -2.0412    
 136.00   9.00     -1.8961    
 136.00  10.00     -1.9052    
 136.00  11.00     -2.0399    
 136.00  12.00     -2.2461    
 136.00  13.00     -2.4605    
 136.00  14.00     -2.6265    
 136.00  15.00     -2.7088    
 136.00  16.00     -2.7013    
 136.00  17.00     -2.6272    
 136.00  18.00     -2.5325    
 136.00  19.00     -2.4726    
 136.00  20.00     -2.4978    
 136.00  21.00     -2.6399    
 136.00  22.00     -2.9029    
 136.00  23.00     -3.2610    
 136.00  24.00     -3.6636    
 136.00  25.00     -4.0457    
 136.00  26.00     -4.3416    
 136.00  27.00     -4.4983    
 136.00  28.00     -4.4858    
 136.00  29.00     -4.3033    
 136.00  30.00     -3.9786    
 136.00  31.00     -3.5628    
 136.00  32.00     -3.1215    
 136.00  33.00     -2.7231    
 136.00  34.00     -2.4289    
 136.00  35.00     -2.2832    
 136.00  36.00     -2.3078    
 136.00  37.00     -2.4989    
 136.00  38.00     -2.8283    
 136.00  39.00     -3.2478    
 136.00  40.00     -3.6955    
 136.00  41.00     -4.1051    
 136.00  42.00     -4.4151    
 136.00  43.00     -4.5781    
 136.00  44.00     -4.5669    
 136.00  45.00     -4.3796    
 136.00  46.00     -4.0367    
 136.00  47.00     -3.5798    
 136.00  48.00     -3.0601    
 136.00  49.00     -2.5295    
 136.00  50.00     -2.0313    
 136.00  51.00     -1.5912    
 136.00  52.00     -1.2150    
 136.00  53.00    -0.88974    
 136.00  54.00    -0.58959    
 136.00  55.00    -0.28573    
 136.00  56.00     0.45201E-01
 136.00  57.00     0.41229    
 136.00  58.00     0.80757    
 136.00  59.00      1.2061    
 136.00  60.00      1.5720    
 136.00  61.00      1.8673    
 136.00  62.00      2.0614    
 136.00  63.00      2.1374    
 136.00  64.00      2.0987    
 136.00  65.00      1.9667    
 136.00  66.00      1.7760    
 136.00  67.00      1.5662    
 136.00  68.00      1.3717    
 136.00  69.00      1.2165    
 136.00  70.00      1.1035    
 136.00  71.00      1.0198    
 136.00  72.00     0.93432    
 136.00  73.00     0.81499    
 136.00  74.00     0.62757    
 136.00  75.00     0.34783    
 136.00  76.00    -0.21902E-01
 136.00  77.00    -0.46063    
 136.00  78.00    -0.93065    
 136.00  79.00     -1.3801    
 136.00  80.00     -1.7605    
 136.00  81.00     -2.0261    
 136.00  82.00     -2.1750    
 136.00  83.00     -2.2006    
 136.00  84.00     -2.1394    
 136.00  85.00     -2.0321    
 136.00  86.00     -1.9372    
 136.00  87.00     -1.8894    
 136.00  88.00     -1.8794    
 136.00  89.00     -1.8914    
 137.00 -89.00      3.8983    
 137.00 -88.00      3.9976    
 137.00 -87.00      4.1194    
 137.00 -86.00      4.2323    
 137.00 -85.00      4.3298    
 137.00 -84.00      4.4139    
 137.00 -83.00      4.4729    
 137.00 -82.00      4.5421    
 137.00 -81.00      4.6327    
 137.00 -80.00      4.7668    
 137.00 -79.00      4.9683    
 137.00 -78.00      5.2295    
 137.00 -77.00      5.5263    
 137.00 -76.00      5.8134    
 137.00 -75.00      6.0285    
 137.00 -74.00      6.1148    
 137.00 -73.00      6.0221    
 137.00 -72.00      5.7220    
 137.00 -71.00      5.2185    
 137.00 -70.00      4.5526    
 137.00 -69.00      3.7791    
 137.00 -68.00      2.9646    
 137.00 -67.00      2.1690    
 137.00 -66.00      1.4313    
 137.00 -65.00     0.76656    
 137.00 -64.00     0.16520    
 137.00 -63.00    -0.39851    
 137.00 -62.00    -0.95636    
 137.00 -61.00     -1.5297    
 137.00 -60.00     -2.1257    
 137.00 -59.00     -2.7313    
 137.00 -58.00     -3.3170    
 137.00 -57.00     -3.8474    
 137.00 -56.00     -4.2891    
 137.00 -55.00     -4.6210    
 137.00 -54.00     -4.8381    
 137.00 -53.00     -4.9498    
 137.00 -52.00     -4.9757    
 137.00 -51.00     -4.9365    
 137.00 -50.00     -4.8465    
 137.00 -49.00     -4.7088    
 137.00 -48.00     -4.5166    
 137.00 -47.00     -4.2561    
 137.00 -46.00     -3.9131    
 137.00 -45.00     -3.4806    
 137.00 -44.00     -2.9626    
 137.00 -43.00     -2.3749    
 137.00 -42.00     -1.7417    
 137.00 -41.00     -1.0892    
 137.00 -40.00    -0.43953    
 137.00 -39.00     0.19359    
 137.00 -38.00     0.80612    
 137.00 -37.00      1.4009    
 137.00 -36.00      1.9824    
 137.00 -35.00      2.5512    
 137.00 -34.00      3.0998    
 137.00 -33.00      3.6123    
 137.00 -32.00      4.0675    
 137.00 -31.00      4.4448    
 137.00 -30.00      4.7308    
 137.00 -29.00      4.9247    
 137.00 -28.00      5.0390    
 137.00 -27.00      5.0974    
 137.00 -26.00      5.1281    
 137.00 -25.00      5.1567    
 137.00 -24.00      5.1994    
 137.00 -23.00      5.2598    
 137.00 -22.00      5.3306    
 137.00 -21.00      5.3987    
 137.00 -20.00      5.4536    
 137.00 -19.00      5.4942    
 137.00 -18.00      5.5331    
 137.00 -17.00      5.5960    
 137.00 -16.00      5.7149    
 137.00 -15.00      5.9174    
 137.00 -14.00      6.2155    
 137.00 -13.00      6.5953    
 137.00 -12.00      7.0128    
 137.00 -11.00      7.3963    
 137.00 -10.00      7.6564    
 137.00  -9.00      7.7012    
 137.00  -8.00      7.4541    
 137.00  -7.00      6.8700    
 137.00  -6.00      5.9468    
 137.00  -5.00      4.7290    
 137.00  -4.00      3.3031    
 137.00  -3.00      1.7857    
 137.00  -2.00     0.30621    
 137.00  -1.00     -1.0125    
 137.00   0.00     -2.0721    
 137.00   1.00     -2.8119    
 137.00   2.00     -3.2158    
 137.00   3.00     -3.3121    
 137.00   4.00     -3.1655    
 137.00   5.00     -2.8647    
 137.00   6.00     -2.5068    
 137.00   7.00     -2.1809    
 137.00   8.00     -1.9551    
 137.00   9.00     -1.8674    
 137.00  10.00     -1.9231    
 137.00  11.00     -2.0983    
 137.00  12.00     -2.3480    
 137.00  13.00     -2.6189    
 137.00  14.00     -2.8611    
 137.00  15.00     -3.0397    
 137.00  16.00     -3.1412    
 137.00  17.00     -3.1751    
 137.00  18.00     -3.1695    
 137.00  19.00     -3.1629    
 137.00  20.00     -3.1937    
 137.00  21.00     -3.2893    
 137.00  22.00     -3.4588    
 137.00  23.00     -3.6899    
 137.00  24.00     -3.9500    
 137.00  25.00     -4.1932    
 137.00  26.00     -4.3691    
 137.00  27.00     -4.4331    
 137.00  28.00     -4.3559    
 137.00  29.00     -4.1288    
 137.00  30.00     -3.7666    
 137.00  31.00     -3.3053    
 137.00  32.00     -2.7969    
 137.00  33.00     -2.3016    
 137.00  34.00     -1.8792    
 137.00  35.00     -1.5806    
 137.00  36.00     -1.4410    
 137.00  37.00     -1.4752    
 137.00  38.00     -1.6758    
 137.00  39.00     -2.0139    
 137.00  40.00     -2.4431    
 137.00  41.00     -2.9058    
 137.00  42.00     -3.3404    
 137.00  43.00     -3.6907    
 137.00  44.00     -3.9125    
 137.00  45.00     -3.9804    
 137.00  46.00     -3.8888    
 137.00  47.00     -3.6535    
 137.00  48.00     -3.3050    
 137.00  49.00     -2.8829    
 137.00  50.00     -2.4274    
 137.00  51.00     -1.9721    
 137.00  52.00     -1.5388    
 137.00  53.00     -1.1364    
 137.00  54.00    -0.76095    
 137.00  55.00    -0.40295    
 137.00  56.00    -0.51130E-01
 137.00  57.00     0.30012    
 137.00  58.00     0.64778    
 137.00  59.00     0.97853    
 137.00  60.00      1.2713    
 137.00  61.00      1.5032    
 137.00  62.00      1.6544    
 137.00  63.00      1.7141    
 137.00  64.00      1.6855    
 137.00  65.00      1.5847    
 137.00  66.00      1.4384    
 137.00  67.00      1.2778    
 137.00  68.00      1.1301    
 137.00  69.00      1.0152    
 137.00  70.00     0.93503    
 137.00  71.00     0.87802    
 137.00  72.00     0.81611    
 137.00  73.00     0.71959    
 137.00  74.00     0.55616    
 137.00  75.00     0.30168    
 137.00  76.00    -0.41987E-01
 137.00  77.00    -0.45625    
 137.00  78.00    -0.90548    
 137.00  79.00     -1.3388    
 137.00  80.00     -1.7092    
 137.00  81.00     -1.9706    
 137.00  82.00     -2.1194    
 137.00  83.00     -2.1478    
 137.00  84.00     -2.0913    
 137.00  85.00     -1.9924    
 137.00  86.00     -1.9048    
 137.00  87.00     -1.8652    
 137.00  88.00     -1.8625    
 137.00  89.00     -1.8829    
 138.00 -89.00      3.8833    
 138.00 -88.00      3.9675    
 138.00 -87.00      4.0748    
 138.00 -86.00      4.1739    
 138.00 -85.00      4.2580    
 138.00 -84.00      4.3303    
 138.00 -83.00      4.3829    
 138.00 -82.00      4.4492    
 138.00 -81.00      4.5464    
 138.00 -80.00      4.6985    
 138.00 -79.00      4.9317    
 138.00 -78.00      5.2379    
 138.00 -77.00      5.5914    
 138.00 -76.00      5.9418    
 138.00 -75.00      6.2203    
 138.00 -74.00      6.3623    
 138.00 -73.00      6.3102    
 138.00 -72.00      6.0300    
 138.00 -71.00      5.5229    
 138.00 -70.00      4.8306    
 138.00 -69.00      4.0116    
 138.00 -68.00      3.1379    
 138.00 -67.00      2.2757    
 138.00 -66.00      1.4690    
 138.00 -65.00     0.73608    
 138.00 -64.00     0.68144E-01
 138.00 -63.00    -0.56154    
 138.00 -62.00     -1.1857    
 138.00 -61.00     -1.8262    
 138.00 -60.00     -2.4879    
 138.00 -59.00     -3.1522    
 138.00 -58.00     -3.7823    
 138.00 -57.00     -4.3339    
 138.00 -56.00     -4.7660    
 138.00 -55.00     -5.0538    
 138.00 -54.00     -5.1931    
 138.00 -53.00     -5.2007    
 138.00 -52.00     -5.1085    
 138.00 -51.00     -4.9528    
 138.00 -50.00     -4.7636    
 138.00 -49.00     -4.5571    
 138.00 -48.00     -4.3342    
 138.00 -47.00     -4.0820    
 138.00 -46.00     -3.7804    
 138.00 -45.00     -3.4116    
 138.00 -44.00     -2.9656    
 138.00 -43.00     -2.4447    
 138.00 -42.00     -1.8617    
 138.00 -41.00     -1.2360    
 138.00 -40.00    -0.58774    
 138.00 -39.00     0.67200E-01
 138.00 -38.00     0.71926    
 138.00 -37.00      1.3643    
 138.00 -36.00      1.9999    
 138.00 -35.00      2.6208    
 138.00 -34.00      3.2154    
 138.00 -33.00      3.7654    
 138.00 -32.00      4.2488    
 138.00 -31.00      4.6451    
 138.00 -30.00      4.9415    
 138.00 -29.00      5.1380    
 138.00 -28.00      5.2482    
 138.00 -27.00      5.2965    
 138.00 -26.00      5.3121    
 138.00 -25.00      5.3211    
 138.00 -24.00      5.3401    
 138.00 -23.00      5.3733    
 138.00 -22.00      5.4139    
 138.00 -21.00      5.4498    
 138.00 -20.00      5.4716    
 138.00 -19.00      5.4803    
 138.00 -18.00      5.4908    
 138.00 -17.00      5.5304    
 138.00 -16.00      5.6318    
 138.00 -15.00      5.8218    
 138.00 -14.00      6.1089    
 138.00 -13.00      6.4741    
 138.00 -12.00      6.8673    
 138.00 -11.00      7.2119    
 138.00 -10.00      7.4161    
 138.00  -9.00      7.3905    
 138.00  -8.00      7.0662    
 138.00  -7.00      6.4104    
 138.00  -6.00      5.4361    
 138.00  -5.00      4.2021    
 138.00  -4.00      2.8054    
 138.00  -3.00      1.3654    
 138.00  -2.00     0.57783E-02
 138.00  -1.00     -1.1652    
 138.00   0.00     -2.0695    
 138.00   1.00     -2.6688    
 138.00   2.00     -2.9665    
 138.00   3.00     -3.0028    
 138.00   4.00     -2.8457    
 138.00   5.00     -2.5770    
 138.00   6.00     -2.2801    
 138.00   7.00     -2.0274    
 138.00   8.00     -1.8721    
 138.00   9.00     -1.8433    
 138.00  10.00     -1.9448    
 138.00  11.00     -2.1590    
 138.00  12.00     -2.4517    
 138.00  13.00     -2.7806    
 138.00  14.00     -3.1027    
 138.00  15.00     -3.3823    
 138.00  16.00     -3.5961    
 138.00  17.00     -3.7362    
 138.00  18.00     -3.8097    
 138.00  19.00     -3.8350    
 138.00  20.00     -3.8367    
 138.00  21.00     -3.8386    
 138.00  22.00     -3.8576    
 138.00  23.00     -3.8989    
 138.00  24.00     -3.9542    
 138.00  25.00     -4.0029    
 138.00  26.00     -4.0160    
 138.00  27.00     -3.9625    
 138.00  28.00     -3.8157    
 138.00  29.00     -3.5599    
 138.00  30.00     -3.1944    
 138.00  31.00     -2.7361    
 138.00  32.00     -2.2180    
 138.00  33.00     -1.6856    
 138.00  34.00     -1.1916    
 138.00  35.00    -0.78814    
 138.00  36.00    -0.52043    
 138.00  37.00    -0.41988    
 138.00  38.00    -0.49961    
 138.00  39.00    -0.75203    
 138.00  40.00     -1.1492    
 138.00  41.00     -1.6462    
 138.00  42.00     -2.1861    
 138.00  43.00     -2.7080    
 138.00  44.00     -3.1543    
 138.00  45.00     -3.4782    
 138.00  46.00     -3.6490    
 138.00  47.00     -3.6559    
 138.00  48.00     -3.5063    
 138.00  49.00     -3.2241    
 138.00  50.00     -2.8431    
 138.00  51.00     -2.4005    
 138.00  52.00     -1.9316    
 138.00  53.00     -1.4647    
 138.00  54.00     -1.0177    
 138.00  55.00    -0.60089    
 138.00  56.00    -0.21698    
 138.00  57.00     0.13382    
 138.00  58.00     0.45089    
 138.00  59.00     0.73029    
 138.00  60.00     0.96430    
 138.00  61.00      1.1439    
 138.00  62.00      1.2605    
 138.00  63.00      1.3093    
 138.00  64.00      1.2943    
 138.00  65.00      1.2269    
 138.00  66.00      1.1264    
 138.00  67.00      1.0159    
 138.00  68.00     0.91551    
 138.00  69.00     0.84088    
 138.00  70.00     0.79262    
 138.00  71.00     0.76057    
 138.00  72.00     0.72011    
 138.00  73.00     0.64372    
 138.00  74.00     0.50154    
 138.00  75.00     0.26987    
 138.00  76.00    -0.49749E-01
 138.00  77.00    -0.44099    
 138.00  78.00    -0.87044    
 138.00  79.00     -1.2883    
 138.00  80.00     -1.6493    
 138.00  81.00     -1.9073    
 138.00  82.00     -2.0569    
 138.00  83.00     -2.0893    
 138.00  84.00     -2.0388    
 138.00  85.00     -1.9496    
 138.00  86.00     -1.8706    
 138.00  87.00     -1.8401    
 138.00  88.00     -1.8453    
 138.00  89.00     -1.8744    
 139.00 -89.00      3.8682    
 139.00 -88.00      3.9370    
 139.00 -87.00      4.0292    
 139.00 -86.00      4.1136    
 139.00 -85.00      4.1832    
 139.00 -84.00      4.2422    
 139.00 -83.00      4.2869    
 139.00 -82.00      4.3483    
 139.00 -81.00      4.4500    
 139.00 -80.00      4.6182    
 139.00 -79.00      4.8815    
 139.00 -78.00      5.2314    
 139.00 -77.00      5.6408    
 139.00 -76.00      6.0545    
 139.00 -75.00      6.3968    
 139.00 -74.00      6.5958    
 139.00 -73.00      6.5861    
 139.00 -72.00      6.3280    
 139.00 -71.00      5.8195    
 139.00 -70.00      5.1026    
 139.00 -69.00      4.2392    
 139.00 -68.00      3.3065    
 139.00 -67.00      2.3766    
 139.00 -66.00      1.4991    
 139.00 -65.00     0.69602    
 139.00 -64.00    -0.40029E-01
 139.00 -63.00    -0.73565    
 139.00 -62.00     -1.4237    
 139.00 -61.00     -2.1261    
 139.00 -60.00     -2.8453    
 139.00 -59.00     -3.5577    
 139.00 -58.00     -4.2201    
 139.00 -57.00     -4.7807    
 139.00 -56.00     -5.1923    
 139.00 -55.00     -5.4273    
 139.00 -54.00     -5.4833    
 139.00 -53.00     -5.3844    
 139.00 -52.00     -5.1744    
 139.00 -51.00     -4.9047    
 139.00 -50.00     -4.6203    
 139.00 -49.00     -4.3497    
 139.00 -48.00     -4.1016    
 139.00 -47.00     -3.8638    
 139.00 -46.00     -3.6112    
 139.00 -45.00     -3.3153    
 139.00 -44.00     -2.9528    
 139.00 -43.00     -2.5121    
 139.00 -42.00     -1.9939    
 139.00 -41.00     -1.4094    
 139.00 -40.00    -0.77469    
 139.00 -39.00    -0.10601    
 139.00 -38.00     0.58348    
 139.00 -37.00      1.2839    
 139.00 -36.00      1.9862    
 139.00 -35.00      2.6786    
 139.00 -34.00      3.3438    
 139.00 -33.00      3.9587    
 139.00 -32.00      4.4974    
 139.00 -31.00      4.9366    
 139.00 -30.00      5.2614    
 139.00 -29.00      5.4705    
 139.00 -28.00      5.5770    
 139.00 -27.00      5.6057    
 139.00 -26.00      5.5871    
 139.00 -25.00      5.5491    
 139.00 -24.00      5.5106    
 139.00 -23.00      5.4782    
 139.00 -22.00      5.4479    
 139.00 -21.00      5.4104    
 139.00 -20.00      5.3592    
 139.00 -19.00      5.2983    
 139.00 -18.00      5.2450    
 139.00 -17.00      5.2287    
 139.00 -16.00      5.2827    
 139.00 -15.00      5.4325    
 139.00 -14.00      5.6835    
 139.00 -13.00      6.0124    
 139.00 -12.00      6.3643    
 139.00 -11.00      6.6590    
 139.00 -10.00      6.8042    
 139.00  -9.00      6.7142    
 139.00  -8.00      6.3283    
 139.00  -7.00      5.6259    
 139.00  -6.00      4.6333    
 139.00  -5.00      3.4213    
 139.00  -4.00      2.0937    
 139.00  -3.00     0.76950    
 139.00  -2.00    -0.43686    
 139.00  -1.00     -1.4339    
 139.00   0.00     -2.1650    
 139.00   1.00     -2.6140    
 139.00   2.00     -2.8018    
 139.00   3.00     -2.7789    
 139.00   4.00     -2.6128    
 139.00   5.00     -2.3761    
 139.00   6.00     -2.1361    
 139.00   7.00     -1.9477    
 139.00   8.00     -1.8489    
 139.00   9.00     -1.8607    
 139.00  10.00     -1.9874    
 139.00  11.00     -2.2195    
 139.00  12.00     -2.5354    
 139.00  13.00     -2.9048    
 139.00  14.00     -3.2922    
 139.00  15.00     -3.6601    
 139.00  16.00     -3.9743    
 139.00  17.00     -4.2074    
 139.00  18.00     -4.3434    
 139.00  19.00     -4.3790    
 139.00  20.00     -4.3243    
 139.00  21.00     -4.1996    
 139.00  22.00     -4.0308    
 139.00  23.00     -3.8432    
 139.00  24.00     -3.6562    
 139.00  25.00     -3.4783    
 139.00  26.00     -3.3060    
 139.00  27.00     -3.1247    
 139.00  28.00     -2.9131    
 139.00  29.00     -2.6492    
 139.00  30.00     -2.3168    
 139.00  31.00     -1.9110    
 139.00  32.00     -1.4424    
 139.00  33.00    -0.93718    
 139.00  34.00    -0.43520    
 139.00  35.00     0.15214E-01
 139.00  36.00     0.36394    
 139.00  37.00     0.56660    
 139.00  38.00     0.59153    
 139.00  39.00     0.42517    
 139.00  40.00     0.75093E-01
 139.00  41.00    -0.42993    
 139.00  42.00     -1.0426    
 139.00  43.00     -1.7028    
 139.00  44.00     -2.3445    
 139.00  45.00     -2.9043    
 139.00  46.00     -3.3289    
 139.00  47.00     -3.5818    
 139.00  48.00     -3.6462    
 139.00  49.00     -3.5277    
 139.00  50.00     -3.2493    
 139.00  51.00     -2.8482    
 139.00  52.00     -2.3686    
 139.00  53.00     -1.8552    
 139.00  54.00     -1.3463    
 139.00  55.00    -0.87144    
 139.00  56.00    -0.44859    
 139.00  57.00    -0.85781E-01
 139.00  58.00     0.21626    
 139.00  59.00     0.46057    
 139.00  60.00     0.65077    
 139.00  61.00     0.79061    
 139.00  62.00     0.88192    
 139.00  63.00     0.92634    
 139.00  64.00     0.92897    
 139.00  65.00     0.89727    
 139.00  66.00     0.84365    
 139.00  67.00     0.78353    
 139.00  68.00     0.73014    
 139.00  69.00     0.69485    
 139.00  70.00     0.67709    
 139.00  71.00     0.66783    
 139.00  72.00     0.64621    
 139.00  73.00     0.58702    
 139.00  74.00     0.46315    
 139.00  75.00     0.25175    
 139.00  76.00    -0.45939E-01
 139.00  77.00    -0.41563    
 139.00  78.00    -0.82626    
 139.00  79.00     -1.2293    
 139.00  80.00     -1.5814    
 139.00  81.00     -1.8366    
 139.00  82.00     -1.9879    
 139.00  83.00     -2.0253    
 139.00  84.00     -1.9822    
 139.00  85.00     -1.9041    
 139.00  86.00     -1.8348    
 139.00  87.00     -1.8141    
 139.00  88.00     -1.8279    
 139.00  89.00     -1.8658    
 140.00 -89.00      3.8530    
 140.00 -88.00      3.9061    
 140.00 -87.00      3.9827    
 140.00 -86.00      4.0516    
 140.00 -85.00      4.1057    
 140.00 -84.00      4.1498    
 140.00 -83.00      4.1848    
 140.00 -82.00      4.2393    
 140.00 -81.00      4.3433    
 140.00 -80.00      4.5256    
 140.00 -79.00      4.8168    
 140.00 -78.00      5.2086    
 140.00 -77.00      5.6722    
 140.00 -76.00      6.1481    
 140.00 -75.00      6.5540    
 140.00 -74.00      6.8102    
 140.00 -73.00      6.8438    
 140.00 -72.00      6.6093    
 140.00 -71.00      6.1013    
 140.00 -70.00      5.3616    
 140.00 -69.00      4.4552    
 140.00 -68.00      3.4643    
 140.00 -67.00      2.4668    
 140.00 -66.00      1.5182    
 140.00 -65.00     0.64459    
 140.00 -64.00    -0.15890    
 140.00 -63.00    -0.91787    
 140.00 -62.00     -1.6646    
 140.00 -61.00     -2.4205    
 140.00 -60.00     -3.1858    
 140.00 -59.00     -3.9328    
 140.00 -58.00     -4.6131    
 140.00 -57.00     -5.1690    
 140.00 -56.00     -5.5486    
 140.00 -55.00     -5.7232    
 140.00 -54.00     -5.6926    
 140.00 -53.00     -5.4884    
 140.00 -52.00     -5.1656    
 140.00 -51.00     -4.7894    
 140.00 -50.00     -4.4184    
 140.00 -49.00     -4.0924    
 140.00 -48.00     -3.8268    
 140.00 -47.00     -3.6103    
 140.00 -46.00     -3.4132    
 140.00 -45.00     -3.1972    
 140.00 -44.00     -2.9268    
 140.00 -43.00     -2.5770    
 140.00 -42.00     -2.1369    
 140.00 -41.00     -1.6083    
 140.00 -40.00     -1.0023    
 140.00 -39.00    -0.33350    
 140.00 -38.00     0.38342    
 140.00 -37.00      1.1346    
 140.00 -36.00      1.9054    
 140.00 -35.00      2.6779    
 140.00 -34.00      3.4282    
 140.00 -33.00      4.1266    
 140.00 -32.00      4.7408    
 140.00 -31.00      5.2417    
 140.00 -30.00      5.6094    
 140.00 -29.00      5.8387    
 140.00 -28.00      5.9406    
 140.00 -27.00      5.9395    
 140.00 -26.00      5.8674    
 140.00 -25.00      5.7552    
 140.00 -24.00      5.6259    
 140.00 -23.00      5.4912    
 140.00 -22.00      5.3517    
 140.00 -21.00      5.2031    
 140.00 -20.00      5.0432    
 140.00 -19.00      4.8795    
 140.00 -18.00      4.7322    
 140.00 -17.00      4.6324    
 140.00 -16.00      4.6138    
 140.00 -15.00      4.7008    
 140.00 -14.00      4.8967    
 140.00 -13.00      5.1747    
 140.00 -12.00      5.4771    
 140.00 -11.00      5.7219    
 140.00 -10.00      5.8177    
 140.00  -9.00      5.6828    
 140.00  -8.00      5.2643    
 140.00  -7.00      4.5514    
 140.00  -6.00      3.5807    
 140.00  -5.00      2.4306    
 140.00  -4.00      1.2079    
 140.00  -3.00     0.27583E-01
 140.00  -2.00     -1.0074    
 140.00  -1.00     -1.8227    
 140.00   0.00     -2.3821    
 140.00   1.00     -2.6884    
 140.00   2.00     -2.7767    
 140.00   3.00     -2.7032    
 140.00   4.00     -2.5316    
 140.00   5.00     -2.3228    
 140.00   6.00     -2.1268    
 140.00   7.00     -1.9809    
 140.00   8.00     -1.9097    
 140.00   9.00     -1.9280    
 140.00  10.00     -2.0431    
 140.00  11.00     -2.2556    
 140.00  12.00     -2.5584    
 140.00  13.00     -2.9347    
 140.00  14.00     -3.3566    
 140.00  15.00     -3.7857    
 140.00  16.00     -4.1762    
 140.00  17.00     -4.4816    
 140.00  18.00     -4.6621    
 140.00  19.00     -4.6929    
 140.00  20.00     -4.5690    
 140.00  21.00     -4.3071    
 140.00  22.00     -3.9418    
 140.00  23.00     -3.5186    
 140.00  24.00     -3.0845    
 140.00  25.00     -2.6780    
 140.00  26.00     -2.3218    
 140.00  27.00     -2.0196    
 140.00  28.00     -1.7572    
 140.00  29.00     -1.5080    
 140.00  30.00     -1.2411    
 140.00  31.00    -0.93068    
 140.00  32.00    -0.56344    
 140.00  33.00    -0.14376    
 140.00  34.00     0.30520    
 140.00  35.00     0.74409    
 140.00  36.00      1.1232    
 140.00  37.00      1.3903    
 140.00  38.00      1.4990    
 140.00  39.00      1.4166    
 140.00  40.00      1.1300    
 140.00  41.00     0.64912    
 140.00  42.00     0.69412E-02
 140.00  43.00    -0.74318    
 140.00  44.00     -1.5335    
 140.00  45.00     -2.2899    
 140.00  46.00     -2.9409    
 140.00  47.00     -3.4269    
 140.00  48.00     -3.7073    
 140.00  49.00     -3.7670    
 140.00  50.00     -3.6148    
 140.00  51.00     -3.2827    
 140.00  52.00     -2.8196    
 140.00  53.00     -2.2823    
 140.00  54.00     -1.7266    
 140.00  55.00     -1.2003    
 140.00  56.00    -0.73685    
 140.00  57.00    -0.35358    
 140.00  58.00    -0.53634E-01
 140.00  59.00     0.17046    
 140.00  60.00     0.33153    
 140.00  61.00     0.44436    
 140.00  62.00     0.52041    
 140.00  63.00     0.56750    
 140.00  64.00     0.59216    
 140.00  65.00     0.59841    
 140.00  66.00     0.59257    
 140.00  67.00     0.58262    
 140.00  68.00     0.57533    
 140.00  69.00     0.57787    
 140.00  70.00     0.58860    
 140.00  71.00     0.59956    
 140.00  72.00     0.59383    
 140.00  73.00     0.54871    
 140.00  74.00     0.44012    
 140.00  75.00     0.24643    
 140.00  76.00    -0.31480E-01
 140.00  77.00    -0.38107    
 140.00  78.00    -0.77381    
 140.00  79.00     -1.1626    
 140.00  80.00     -1.5062    
 140.00  81.00     -1.7591    
 140.00  82.00     -1.9126    
 140.00  83.00     -1.9562    
 140.00  84.00     -1.9216    
 140.00  85.00     -1.8558    
 140.00  86.00     -1.7973    
 140.00  87.00     -1.7873    
 140.00  88.00     -1.8102    
 140.00  89.00     -1.8572    
 141.00 -89.00      3.8377    
 141.00 -88.00      3.8749    
 141.00 -87.00      3.9353    
 141.00 -86.00      3.9878    
 141.00 -85.00      4.0254    
 141.00 -84.00      4.0530    
 141.00 -83.00      4.0767    
 141.00 -82.00      4.1222    
 141.00 -81.00      4.2263    
 141.00 -80.00      4.4202    
 141.00 -79.00      4.7367    
 141.00 -78.00      5.1678    
 141.00 -77.00      5.6834    
 141.00 -76.00      6.2196    
 141.00 -75.00      6.6876    
 141.00 -74.00      7.0004    
 141.00 -73.00      7.0774    
 141.00 -72.00      6.8674    
 141.00 -71.00      6.3613    
 141.00 -70.00      5.6005    
 141.00 -69.00      4.6528    
 141.00 -68.00      3.6050    
 141.00 -67.00      2.5411    
 141.00 -66.00      1.5224    
 141.00 -65.00     0.57980    
 141.00 -64.00    -0.28828    
 141.00 -63.00     -1.1056    
 141.00 -62.00     -1.9030    
 141.00 -61.00     -2.7015    
 141.00 -60.00     -3.4988    
 141.00 -59.00     -4.2645    
 141.00 -58.00     -4.9464    
 141.00 -57.00     -5.4829    
 141.00 -56.00     -5.8195    
 141.00 -55.00     -5.9273    
 141.00 -54.00     -5.8097    
 141.00 -53.00     -5.5051    
 141.00 -52.00     -5.0790    
 141.00 -51.00     -4.6082    
 141.00 -50.00     -4.1633    
 141.00 -49.00     -3.7936    
 141.00 -48.00     -3.5199    
 141.00 -47.00     -3.3316    
 141.00 -46.00     -3.1948    
 141.00 -45.00     -3.0630    
 141.00 -44.00     -2.8898    
 141.00 -43.00     -2.6385    
 141.00 -42.00     -2.2873    
 141.00 -41.00     -1.8295    
 141.00 -40.00     -1.2699    
 141.00 -39.00    -0.61990    
 141.00 -38.00     0.10619    
 141.00 -37.00     0.89274    
 141.00 -36.00      1.7216    
 141.00 -35.00      2.5695    
 141.00 -34.00      3.4062    
 141.00 -33.00      4.1943    
 141.00 -32.00      4.8935    
 141.00 -31.00      5.4661    
 141.00 -30.00      5.8847    
 141.00 -29.00      6.1378    
 141.00 -28.00      6.2323    
 141.00 -27.00      6.1916    
 141.00 -26.00      6.0492    
 141.00 -25.00      5.8402    
 141.00 -24.00      5.5939    
 141.00 -23.00      5.3287    
 141.00 -22.00      5.0525    
 141.00 -21.00      4.7672    
 141.00 -20.00      4.4759    
 141.00 -19.00      4.1897    
 141.00 -18.00      3.9314    
 141.00 -17.00      3.7328    
 141.00 -16.00      3.6277    
 141.00 -15.00      3.6396    
 141.00 -14.00      3.7702    
 141.00 -13.00      3.9914    
 141.00 -12.00      4.2443    
 141.00 -11.00      4.4476    
 141.00 -10.00      4.5121    
 141.00  -9.00      4.3607    
 141.00  -8.00      3.9464    
 141.00  -7.00      3.2653    
 141.00  -6.00      2.3596    
 141.00  -5.00      1.3109    
 141.00  -4.00     0.22400    
 141.00  -3.00    -0.79351    
 141.00  -2.00     -1.6514    
 141.00  -1.00     -2.2918    
 141.00   0.00     -2.6957    
 141.00   1.00     -2.8805    
 141.00   2.00     -2.8901    
 141.00   3.00     -2.7813    
 141.00   4.00     -2.6104    
 141.00   5.00     -2.4238    
 141.00   6.00     -2.2545    
 141.00   7.00     -2.1229    
 141.00   8.00     -2.0426    
 141.00   9.00     -2.0250    
 141.00  10.00     -2.0830    
 141.00  11.00     -2.2295    
 141.00  12.00     -2.4735    
 141.00  13.00     -2.8129    
 141.00  14.00     -3.2285    
 141.00  15.00     -3.6818    
 141.00  16.00     -4.1173    
 141.00  17.00     -4.4707    
 141.00  18.00     -4.6804    
 141.00  19.00     -4.7011    
 141.00  20.00     -4.5135    
 141.00  21.00     -4.1294    
 141.00  22.00     -3.5907    
 141.00  23.00     -2.9602    
 141.00  24.00     -2.3094    
 141.00  25.00     -1.7037    
 141.00  26.00     -1.1903    
 141.00  27.00    -0.79068    
 141.00  28.00    -0.49850    
 141.00  29.00    -0.28485    
 141.00  30.00    -0.10728    
 141.00  31.00     0.78555E-01
 141.00  32.00     0.30781    
 141.00  33.00     0.59795    
 141.00  34.00     0.94443    
 141.00  35.00      1.3209    
 141.00  36.00      1.6833    
 141.00  37.00      1.9773    
 141.00  38.00      2.1474    
 141.00  39.00      2.1452    
 141.00  40.00      1.9386    
 141.00  41.00      1.5170    
 141.00  42.00     0.89530    
 141.00  43.00     0.11392    
 141.00  44.00    -0.76481    
 141.00  45.00     -1.6629    
 141.00  46.00     -2.4971    
 141.00  47.00     -3.1884    
 141.00  48.00     -3.6740    
 141.00  49.00     -3.9167    
 141.00  50.00     -3.9079    
 141.00  51.00     -3.6703    
 141.00  52.00     -3.2516    
 141.00  53.00     -2.7163    
 141.00  54.00     -2.1340    
 141.00  55.00     -1.5685    
 141.00  56.00     -1.0681    
 141.00  57.00    -0.66058    
 141.00  58.00    -0.35338    
 141.00  59.00    -0.13699    
 141.00  60.00     0.83017E-02
 141.00  61.00     0.10638    
 141.00  62.00     0.17718    
 141.00  63.00     0.23417    
 141.00  64.00     0.28536    
 141.00  65.00     0.33184    
 141.00  66.00     0.37441    
 141.00  67.00     0.41401    
 141.00  68.00     0.45142    
 141.00  69.00     0.48980    
 141.00  70.00     0.52657    
 141.00  71.00     0.55494    
 141.00  72.00     0.56192    
 141.00  73.00     0.52768    
 141.00  74.00     0.43130    
 141.00  75.00     0.25278    
 141.00  76.00    -0.74449E-02
 141.00  77.00    -0.33832    
 141.00  78.00    -0.71398    
 141.00  79.00     -1.0889    
 141.00  80.00     -1.4243    
 141.00  81.00     -1.6753    
 141.00  82.00     -1.8317    
 141.00  83.00     -1.8823    
 141.00  84.00     -1.8575    
 141.00  85.00     -1.8048    
 141.00  86.00     -1.7583    
 141.00  87.00     -1.7596    
 141.00  88.00     -1.7922    
 141.00  89.00     -1.8486    
 142.00 -89.00      3.8223    
 142.00 -88.00      3.8433    
 142.00 -87.00      3.8869    
 142.00 -86.00      3.9223    
 142.00 -85.00      3.9424    
 142.00 -84.00      3.9522    
 142.00 -83.00      3.9626    
 142.00 -82.00      3.9971    
 142.00 -81.00      4.0988    
 142.00 -80.00      4.3017    
 142.00 -79.00      4.6404    
 142.00 -78.00      5.1080    
 142.00 -77.00      5.6724    
 142.00 -76.00      6.2661    
 142.00 -75.00      6.7939    
 142.00 -74.00      7.1616    
 142.00 -73.00      7.2812    
 142.00 -72.00      7.0957    
 142.00 -71.00      6.5925    
 142.00 -70.00      5.8122    
 142.00 -69.00      4.8250    
 142.00 -68.00      3.7225    
 142.00 -67.00      2.5942    
 142.00 -66.00      1.5080    
 142.00 -65.00     0.49948    
 142.00 -64.00    -0.42830    
 142.00 -63.00     -1.2967    
 142.00 -62.00     -2.1348    
 142.00 -61.00     -2.9624    
 142.00 -60.00     -3.7758    
 142.00 -59.00     -4.5426    
 142.00 -58.00     -5.2090    
 142.00 -57.00     -5.7113    
 142.00 -56.00     -5.9946    
 142.00 -55.00     -6.0312    
 142.00 -54.00     -5.8288    
 142.00 -53.00     -5.4323    
 142.00 -52.00     -4.9161    
 142.00 -51.00     -4.3668    
 142.00 -50.00     -3.8641    
 142.00 -49.00     -3.4646    
 142.00 -48.00     -3.1932    
 142.00 -47.00     -3.0391    
 142.00 -46.00     -2.9651    
 142.00 -45.00     -2.9181    
 142.00 -44.00     -2.8431    
 142.00 -43.00     -2.6939    
 142.00 -42.00     -2.4398    
 142.00 -41.00     -2.0662    
 142.00 -40.00     -1.5717    
 142.00 -39.00    -0.96367    
 142.00 -38.00    -0.25376    
 142.00 -37.00     0.54302    
 142.00 -36.00      1.4073    
 142.00 -35.00      2.3123    
 142.00 -34.00      3.2225    
 142.00 -33.00      4.0929    
 142.00 -32.00      4.8739    
 142.00 -31.00      5.5178    
 142.00 -30.00      5.9873    
 142.00 -29.00      6.2627    
 142.00 -28.00      6.3457    
 142.00 -27.00      6.2575    
 142.00 -26.00      6.0335    
 142.00 -25.00      5.7142    
 142.00 -24.00      5.3366    
 142.00 -23.00      4.9279    
 142.00 -22.00      4.5047    
 142.00 -21.00      4.0762    
 142.00 -20.00      3.6507    
 142.00 -19.00      3.2423    
 142.00 -18.00      2.8748    
 142.00 -17.00      2.5797    
 142.00 -16.00      2.3894    
 142.00 -15.00      2.3263    
 142.00 -14.00      2.3915    
 142.00 -13.00      2.5573    
 142.00 -12.00      2.7666    
 142.00 -11.00      2.9409    
 142.00 -10.00      2.9954    
 142.00  -9.00      2.8575    
 142.00  -8.00      2.4851    
 142.00  -7.00      1.8777    
 142.00  -6.00      1.0788    
 142.00  -5.00     0.16737    
 142.00  -4.00    -0.75823    
 142.00  -3.00     -1.6011    
 142.00  -2.00     -2.2846    
 142.00  -1.00     -2.7659    
 142.00   0.00     -3.0392    
 142.00   1.00     -3.1314    
 142.00   2.00     -3.0891    
 142.00   3.00     -2.9646    
 142.00   4.00     -2.8031    
 142.00   5.00     -2.6348    
 142.00   6.00     -2.4755    
 142.00   7.00     -2.3310    
 142.00   8.00     -2.2060    
 142.00   9.00     -2.1118    
 142.00  10.00     -2.0686    
 142.00  11.00     -2.1038    
 142.00  12.00     -2.2432    
 142.00  13.00     -2.5002    
 142.00  14.00     -2.8657    
 142.00  15.00     -3.3031    
 142.00  16.00     -3.7497    
 142.00  17.00     -4.1268    
 142.00  18.00     -4.3550    
 142.00  19.00     -4.3706    
 142.00  20.00     -4.1413    
 142.00  21.00     -3.6736    
 142.00  22.00     -3.0130    
 142.00  23.00     -2.2346    
 142.00  24.00     -1.4283    
 142.00  25.00    -0.68051    
 142.00  26.00    -0.58161E-01
 142.00  27.00     0.40248    
 142.00  28.00     0.69955    
 142.00  29.00     0.86179    
 142.00  30.00     0.93894    
 142.00  31.00     0.98876    
 142.00  32.00      1.0638    
 142.00  33.00      1.2005    
 142.00  34.00      1.4126    
 142.00  35.00      1.6891    
 142.00  36.00      1.9963    
 142.00  37.00      2.2841    
 142.00  38.00      2.4937    
 142.00  39.00      2.5667    
 142.00  40.00      2.4546    
 142.00  41.00      2.1269    
 142.00  42.00      1.5773    
 142.00  43.00     0.82796    
 142.00  44.00    -0.71300E-01
 142.00  45.00     -1.0464    
 142.00  46.00     -2.0089    
 142.00  47.00     -2.8657    
 142.00  48.00     -3.5343    
 142.00  49.00     -3.9554    
 142.00  50.00     -4.1009    
 142.00  51.00     -3.9791    
 142.00  52.00     -3.6321    
 142.00  53.00     -3.1265    
 142.00  54.00     -2.5414    
 142.00  55.00     -1.9536    
 142.00  56.00     -1.4252    
 142.00  57.00    -0.99463    
 142.00  58.00    -0.67499    
 142.00  59.00    -0.45696    
 142.00  60.00    -0.31622    
 142.00  61.00    -0.22188    
 142.00  62.00    -0.14694    
 142.00  63.00    -0.73064E-01
 142.00  64.00     0.90659E-02
 142.00  65.00     0.97902E-01
 142.00  66.00     0.18926    
 142.00  67.00     0.27745    
 142.00  68.00     0.35781    
 142.00  69.00     0.42968    
 142.00  70.00     0.48976    
 142.00  71.00     0.53258    
 142.00  72.00     0.54897    
 142.00  73.00     0.52243    
 142.00  74.00     0.43529    
 142.00  75.00     0.26949    
 142.00  76.00     0.24953E-01
 142.00  77.00    -0.28848    
 142.00  78.00    -0.64777    
 142.00  79.00     -1.0092    
 142.00  80.00     -1.3365    
 142.00  81.00     -1.5857    
 142.00  82.00     -1.7454    
 142.00  83.00     -1.8039    
 142.00  84.00     -1.7900    
 142.00  85.00     -1.7514    
 142.00  86.00     -1.7179    
 142.00  87.00     -1.7311    
 142.00  88.00     -1.7740    
 142.00  89.00     -1.8399    
 143.00 -89.00      3.8069    
 143.00 -88.00      3.8114    
 143.00 -87.00      3.8378    
 143.00 -86.00      3.8551    
 143.00 -85.00      3.8568    
 143.00 -84.00      3.8473    
 143.00 -83.00      3.8425    
 143.00 -82.00      3.8640    
 143.00 -81.00      3.9609    
 143.00 -80.00      4.1698    
 143.00 -79.00      4.5275    
 143.00 -78.00      5.0280    
 143.00 -77.00      5.6375    
 143.00 -76.00      6.2849    
 143.00 -75.00      6.8693    
 143.00 -74.00      7.2893    
 143.00 -73.00      7.4496    
 143.00 -72.00      7.2879    
 143.00 -71.00      6.7881    
 143.00 -70.00      5.9896    
 143.00 -69.00      4.9652    
 143.00 -68.00      3.8105    
 143.00 -67.00      2.6209    
 143.00 -66.00      1.4709    
 143.00 -65.00     0.40139    
 143.00 -64.00    -0.57943    
 143.00 -63.00     -1.4900    
 143.00 -62.00     -2.3567    
 143.00 -61.00     -3.1985    
 143.00 -60.00     -4.0108    
 143.00 -59.00     -4.7606    
 143.00 -58.00     -5.3942    
 143.00 -57.00     -5.8481    
 143.00 -56.00     -6.0692    
 143.00 -55.00     -6.0325    
 143.00 -54.00     -5.7503    
 143.00 -53.00     -5.2737    
 143.00 -52.00     -4.6841    
 143.00 -51.00     -4.0751    
 143.00 -50.00     -3.5329    
 143.00 -49.00     -3.1191    
 143.00 -48.00     -2.8600    
 143.00 -47.00     -2.7448    
 143.00 -46.00     -2.7334    
 143.00 -45.00     -2.7678    
 143.00 -44.00     -2.7872    
 143.00 -43.00     -2.7389    
 143.00 -42.00     -2.5857    
 143.00 -41.00     -2.3071    
 143.00 -40.00     -1.8961    
 143.00 -39.00     -1.3548    
 143.00 -38.00    -0.69099    
 143.00 -37.00     0.83556E-01
 143.00 -36.00     0.95076    
 143.00 -35.00      1.8831    
 143.00 -34.00      2.8411    
 143.00 -33.00      3.7733    
 143.00 -32.00      4.6208    
 143.00 -31.00      5.3251    
 143.00 -30.00      5.8380    
 143.00 -29.00      6.1302    
 143.00 -28.00      6.1969    
 143.00 -27.00      6.0571    
 143.00 -26.00      5.7484    
 143.00 -25.00      5.3174    
 143.00 -24.00      4.8100    
 143.00 -23.00      4.2636    
 143.00 -22.00      3.7043    
 143.00 -21.00      3.1485    
 143.00 -20.00      2.6090    
 143.00 -19.00      2.1012    
 143.00 -18.00      1.6474    
 143.00 -17.00      1.2765    
 143.00 -16.00      1.0178    
 143.00 -15.00     0.89202    
 143.00 -14.00     0.90018    
 143.00 -13.00      1.0170    
 143.00 -12.00      1.1899    
 143.00 -11.00      1.3466    
 143.00 -10.00      1.4086    
 143.00  -9.00      1.3094    
 143.00  -8.00      1.0106    
 143.00  -7.00     0.51236    
 143.00  -6.00    -0.14496    
 143.00  -5.00    -0.88957    
 143.00  -4.00     -1.6342    
 143.00  -3.00     -2.2956    
 143.00  -2.00     -2.8118    
 143.00  -1.00     -3.1530    
 143.00   0.00     -3.3233    
 143.00   1.00     -3.3533    
 143.00   2.00     -3.2874    
 143.00   3.00     -3.1685    
 143.00   4.00     -3.0274    
 143.00   5.00     -2.8772    
 143.00   6.00     -2.7169    
 143.00   7.00     -2.5398    
 143.00   8.00     -2.3445    
 143.00   9.00     -2.1436    
 143.00  10.00     -1.9670    
 143.00  11.00     -1.8566    
 143.00  12.00     -1.8551    
 143.00  13.00     -1.9917    
 143.00  14.00     -2.2683    
 143.00  15.00     -2.6523    
 143.00  16.00     -3.0779    
 143.00  17.00     -3.4569    
 143.00  18.00     -3.6964    
 143.00  19.00     -3.7194    
 143.00  20.00     -3.4821    
 143.00  21.00     -2.9850    
 143.00  22.00     -2.2732    
 143.00  23.00     -1.4277    
 143.00  24.00    -0.54844    
 143.00  25.00     0.26556    
 143.00  26.00     0.93484    
 143.00  27.00      1.4126    
 143.00  28.00      1.6897    
 143.00  29.00      1.7925    
 143.00  30.00      1.7725    
 143.00  31.00      1.6942    
 143.00  32.00      1.6207    
 143.00  33.00      1.6023    
 143.00  34.00      1.6684    
 143.00  35.00      1.8237    
 143.00  36.00      2.0489    
 143.00  37.00      2.3035    
 143.00  38.00      2.5325    
 143.00  39.00      2.6736    
 143.00  40.00      2.6666    
 143.00  41.00      2.4626    
 143.00  42.00      2.0328    
 143.00  43.00      1.3769    
 143.00  44.00     0.52583    
 143.00  45.00    -0.45775    
 143.00  46.00     -1.4873    
 143.00  47.00     -2.4615    
 143.00  48.00     -3.2822    
 143.00  49.00     -3.8687    
 143.00  50.00     -4.1718    
 143.00  51.00     -4.1824    
 143.00  52.00     -3.9317    
 143.00  53.00     -3.4834    
 143.00  54.00     -2.9213    
 143.00  55.00     -2.3320    
 143.00  56.00     -1.7891    
 143.00  57.00     -1.3414    
 143.00  58.00     -1.0085    
 143.00  59.00    -0.78311    
 143.00  60.00    -0.63845    
 143.00  61.00    -0.53870    
 143.00  62.00    -0.45139    
 143.00  63.00    -0.35429    
 143.00  64.00    -0.23718    
 143.00  65.00    -0.10409    
 143.00  66.00     0.36158E-01
 143.00  67.00     0.17175    
 143.00  68.00     0.29303    
 143.00  69.00     0.39583    
 143.00  70.00     0.47634    
 143.00  71.00     0.53058    
 143.00  72.00     0.55313    
 143.00  73.00     0.53120    
 143.00  74.00     0.45044    
 143.00  75.00     0.29507    
 143.00  76.00     0.64394E-01
 143.00  77.00    -0.23275    
 143.00  78.00    -0.57620    
 143.00  79.00    -0.92437    
 143.00  80.00     -1.2435    
 143.00  81.00     -1.4912    
 143.00  82.00     -1.6544    
 143.00  83.00     -1.7215    
 143.00  84.00     -1.7195    
 143.00  85.00     -1.6956    
 143.00  86.00     -1.6760    
 143.00  87.00     -1.7018    
 143.00  88.00     -1.7556    
 143.00  89.00     -1.8312    
 144.00 -89.00      3.7914    
 144.00 -88.00      3.7793    
 144.00 -87.00      3.7878    
 144.00 -86.00      3.7863    
 144.00 -85.00      3.7686    
 144.00 -84.00      3.7386    
 144.00 -83.00      3.7166    
 144.00 -82.00      3.7231    
 144.00 -81.00      3.8126    
 144.00 -80.00      4.0244    
 144.00 -79.00      4.3974    
 144.00 -78.00      4.9267    
 144.00 -77.00      5.5769    
 144.00 -76.00      6.2737    
 144.00 -75.00      6.9104    
 144.00 -74.00      7.3792    
 144.00 -73.00      7.5776    
 144.00 -72.00      7.4382    
 144.00 -71.00      6.9418    
 144.00 -70.00      6.1263    
 144.00 -69.00      5.0668    
 144.00 -68.00      3.8632    
 144.00 -67.00      2.6164    
 144.00 -66.00      1.4076    
 144.00 -65.00     0.28321    
 144.00 -64.00    -0.74249    
 144.00 -63.00     -1.6846    
 144.00 -62.00     -2.5669    
 144.00 -61.00     -3.4072    
 144.00 -60.00     -4.2008    
 144.00 -59.00     -4.9157    
 144.00 -58.00     -5.5000    
 144.00 -57.00     -5.8928    
 144.00 -56.00     -6.0448    
 144.00 -55.00     -5.9350    
 144.00 -54.00     -5.5807    
 144.00 -53.00     -5.0384    
 144.00 -52.00     -4.3945    
 144.00 -51.00     -3.7468    
 144.00 -50.00     -3.1849    
 144.00 -49.00     -2.7721    
 144.00 -48.00     -2.5348    
 144.00 -47.00     -2.4610    
 144.00 -46.00     -2.5085    
 144.00 -45.00     -2.6168    
 144.00 -44.00     -2.7219    
 144.00 -43.00     -2.7681    
 144.00 -42.00     -2.7148    
 144.00 -41.00     -2.5377    
 144.00 -40.00     -2.2253    
 144.00 -39.00     -1.7746    
 144.00 -38.00     -1.1877    
 144.00 -37.00    -0.47111    
 144.00 -36.00     0.36108    
 144.00 -35.00      1.2832    
 144.00 -34.00      2.2543    
 144.00 -33.00      3.2181    
 144.00 -32.00      4.1074    
 144.00 -31.00      4.8531    
 144.00 -30.00      5.3959    
 144.00 -29.00      5.6966    
 144.00 -28.00      5.7436    
 144.00 -27.00      5.5536    
 144.00 -26.00      5.1666    
 144.00 -25.00      4.6360    
 144.00 -24.00      4.0173    
 144.00 -23.00      3.3585    
 144.00 -22.00      2.6950    
 144.00 -21.00      2.0497    
 144.00 -20.00      1.4378    
 144.00 -19.00     0.87337    
 144.00 -18.00     0.37432    
 144.00 -17.00    -0.36262E-01
 144.00 -16.00    -0.33414    
 144.00 -15.00    -0.50178    
 144.00 -14.00    -0.53754    
 144.00 -13.00    -0.46241    
 144.00 -12.00    -0.32134    
 144.00 -11.00    -0.17724    
 144.00 -10.00    -0.98856E-01
 144.00  -9.00    -0.14513    
 144.00  -8.00    -0.35057    
 144.00  -7.00    -0.71600    
 144.00  -6.00     -1.2076    
 144.00  -5.00     -1.7650    
 144.00  -4.00     -2.3158    
 144.00  -3.00     -2.7930    
 144.00  -2.00     -3.1501    
 144.00  -1.00     -3.3693    
 144.00   0.00     -3.4612    
 144.00   1.00     -3.4564    
 144.00   2.00     -3.3922    
 144.00   3.00     -3.2988    
 144.00   4.00     -3.1903    
 144.00   5.00     -3.0625    
 144.00   6.00     -2.8987    
 144.00   7.00     -2.6816    
 144.00   8.00     -2.4055    
 144.00   9.00     -2.0863    
 144.00  10.00     -1.7630    
 144.00  11.00     -1.4915    
 144.00  12.00     -1.3304    
 144.00  13.00     -1.3236    
 144.00  14.00     -1.4841    
 144.00  15.00     -1.7857    
 144.00  16.00     -2.1634    
 144.00  17.00     -2.5253    
 144.00  18.00     -2.7713    
 144.00  19.00     -2.8160    
 144.00  20.00     -2.6074    
 144.00  21.00     -2.1396    
 144.00  22.00     -1.4537    
 144.00  23.00    -0.62946    
 144.00  24.00     0.23237    
 144.00  25.00      1.0300    
 144.00  26.00      1.6799    
 144.00  27.00      2.1303    
 144.00  28.00      2.3670    
 144.00  29.00      2.4112    
 144.00  30.00      2.3113    
