  -1.00  59.00     0.10520E-01
  -1.00  60.00     0.14763    
  -1.00  61.00     0.25350    
  -1.00  62.00     0.30610    
  -1.00  63.00     0.29755    
  -1.00  64.00     0.23527    
  -1.00  65.00     0.13977    
  -1.00  66.00     0.37812E-01
  -1.00  67.00    -0.45771E-01
  -1.00  68.00    -0.94994E-01
  -1.00  69.00    -0.10717    
  -1.00  70.00    -0.91859E-01
  -1.00  71.00    -0.66142E-01
  -1.00  72.00    -0.47917E-01
  -1.00  73.00    -0.49439E-01
  -1.00  74.00    -0.72196E-01
  -1.00  75.00    -0.10674    
  -1.00  76.00    -0.13593    
  -1.00  77.00    -0.14236    
  -1.00  78.00    -0.11349    
  -1.00  79.00    -0.47736E-01
  -1.00  80.00     0.44791E-01
  -1.00  81.00     0.14487    
  -1.00  82.00     0.23059    
  -1.00  83.00     0.28286    
  -1.00  84.00     0.29281    
  -1.00  85.00     0.26346    
  -1.00  86.00     0.20731    
  -1.00  87.00     0.14433    
  -1.00  88.00     0.90349E-01
  -1.00  89.00     0.59515E-01
   0.00 -89.00    -0.68774E-02
   0.00 -88.00    -0.81137E-02
   0.00 -87.00     0.14444E-01
   0.00 -86.00     0.57656E-01
   0.00 -85.00     0.11079    
   0.00 -84.00     0.16683    
   0.00 -83.00     0.21631    
   0.00 -82.00     0.25423    
   0.00 -81.00     0.27583    
   0.00 -80.00     0.28340    
   0.00 -79.00     0.28120    
   0.00 -78.00     0.27585    
   0.00 -77.00     0.27377    
   0.00 -76.00     0.27782    
   0.00 -75.00     0.28828    
   0.00 -74.00     0.30226    
   0.00 -73.00     0.31513    
   0.00 -72.00     0.32298    
   0.00 -71.00     0.32451    
   0.00 -70.00     0.32049    
   0.00 -69.00     0.31360    
   0.00 -68.00     0.30633    
   0.00 -67.00     0.29855    
   0.00 -66.00     0.28662    
   0.00 -65.00     0.26345    
   0.00 -64.00     0.22078    
   0.00 -63.00     0.15256    
   0.00 -62.00     0.59507E-01
   0.00 -61.00    -0.50145E-01
   0.00 -60.00    -0.15933    
   0.00 -59.00    -0.24658    
   0.00 -58.00    -0.29127    
   0.00 -57.00    -0.28022    
   0.00 -56.00    -0.21311    
   0.00 -55.00    -0.10428    
   0.00 -54.00     0.19272E-01
   0.00 -53.00     0.12450    
   0.00 -52.00     0.18069    
   0.00 -51.00     0.16849    
   0.00 -50.00     0.85484E-01
   0.00 -49.00    -0.51935E-01
   0.00 -48.00    -0.21314    
   0.00 -47.00    -0.36143    
   0.00 -46.00    -0.46421    
   0.00 -45.00    -0.50208    
   0.00 -44.00    -0.47407    
   0.00 -43.00    -0.39749    
   0.00 -42.00    -0.30210    
   0.00 -41.00    -0.22115    
   0.00 -40.00    -0.18121    
   0.00 -39.00    -0.19490    
   0.00 -38.00    -0.25764    
   0.00 -37.00    -0.35011    
   0.00 -36.00    -0.44499    
   0.00 -35.00    -0.51590    
   0.00 -34.00    -0.54550    
   0.00 -33.00    -0.53031    
   0.00 -32.00    -0.48091    
   0.00 -31.00    -0.41760    
   0.00 -30.00    -0.36317    
   0.00 -29.00    -0.33540    
   0.00 -28.00    -0.34158    
   0.00 -27.00    -0.37686    
   0.00 -26.00    -0.42672    
   0.00 -25.00    -0.47253    
   0.00 -24.00    -0.49818    
   0.00 -23.00    -0.49555    
   0.00 -22.00    -0.46707    
   0.00 -21.00    -0.42458    
   0.00 -20.00    -0.38529    
   0.00 -19.00    -0.36601    
   0.00 -18.00    -0.37796    
   0.00 -17.00    -0.42343    
   0.00 -16.00    -0.49553    
   0.00 -15.00    -0.58053    
   0.00 -14.00    -0.66204    
   0.00 -13.00    -0.72526    
   0.00 -12.00    -0.76021    
   0.00 -11.00    -0.76301    
   0.00 -10.00    -0.73509    
   0.00  -9.00    -0.68135    
   0.00  -8.00    -0.60795    
   0.00  -7.00    -0.52086    
   0.00  -6.00    -0.42552    
   0.00  -5.00    -0.32750    
   0.00  -4.00    -0.23341    
   0.00  -3.00    -0.15120    
   0.00  -2.00    -0.89420E-01
   0.00  -1.00    -0.55242E-01
   0.00   0.00    -0.51904E-01
   0.00   1.00    -0.76618E-01
   0.00   2.00    -0.11996    
   0.00   3.00    -0.16736    
   0.00   4.00    -0.20262    
   0.00   5.00    -0.21251    
   0.00   6.00    -0.19103    
   0.00   7.00    -0.14188    
   0.00   8.00    -0.78022E-01
   0.00   9.00    -0.18295E-01
   0.00  10.00     0.18125E-01
   0.00  11.00     0.17748E-01
   0.00  12.00    -0.22601E-01
   0.00  13.00    -0.94101E-01
   0.00  14.00    -0.17786    
   0.00  15.00    -0.25002    
   0.00  16.00    -0.28852    
   0.00  17.00    -0.27962    
   0.00  18.00    -0.22217    
   0.00  19.00    -0.12836    
   0.00  20.00    -0.20844E-01
   0.00  21.00     0.72989E-01
   0.00  22.00     0.12786    
   0.00  23.00     0.12671    
   0.00  24.00     0.64460E-01
   0.00  25.00    -0.51333E-01
   0.00  26.00    -0.20280    
   0.00  27.00    -0.36619    
   0.00  28.00    -0.51695    
   0.00  29.00    -0.63439    
   0.00  30.00    -0.70474    
   0.00  31.00    -0.72255    
   0.00  32.00    -0.69053    
   0.00  33.00    -0.61825    
   0.00  34.00    -0.52034    
   0.00  35.00    -0.41453    
   0.00  36.00    -0.31936    
   0.00  37.00    -0.25188    
   0.00  38.00    -0.22494    
   0.00  39.00    -0.24477    
   0.00  40.00    -0.30896    
   0.00  41.00    -0.40590    
   0.00  42.00    -0.51617    
   0.00  43.00    -0.61596    
   0.00  44.00    -0.68225    
   0.00  45.00    -0.69842    
   0.00  46.00    -0.65876    
   0.00  47.00    -0.57062    
   0.00  48.00    -0.45284    
   0.00  49.00    -0.33114    
   0.00  50.00    -0.23108    
   0.00  51.00    -0.17075    
   0.00  52.00    -0.15556    
   0.00  53.00    -0.17634    
   0.00  54.00    -0.21239    
   0.00  55.00    -0.23775    
   0.00  56.00    -0.22915    
   0.00  57.00    -0.17400    
   0.00  58.00    -0.74306E-01
   0.00  59.00     0.53095E-01
   0.00  60.00     0.18125    
   0.00  61.00     0.28136    
   0.00  62.00     0.33080    
   0.00  63.00     0.32040    
   0.00  64.00     0.25616    
   0.00  65.00     0.15760    
   0.00  66.00     0.51139E-01
   0.00  67.00    -0.37914E-01
   0.00  68.00    -0.92679E-01
   0.00  69.00    -0.10931    
   0.00  70.00    -0.96483E-01
   0.00  71.00    -0.70911E-01
   0.00  72.00    -0.50628E-01
   0.00  73.00    -0.48722E-01
   0.00  74.00    -0.67581E-01
   0.00  75.00    -0.98631E-01
   0.00  76.00    -0.12523    
   0.00  77.00    -0.13014    
   0.00  78.00    -0.10045    
   0.00  79.00    -0.34290E-01
   0.00  80.00     0.58660E-01
   0.00  81.00     0.15931    
   0.00  82.00     0.24570    
   0.00  83.00     0.29850    
   0.00  84.00     0.30818    
   0.00  85.00     0.27744    
   0.00  86.00     0.21904    
   0.00  87.00     0.15304    
   0.00  88.00     0.95730E-01
   0.00  89.00     0.61875E-01
   1.00 -89.00    -0.69142E-02
   1.00 -88.00    -0.82521E-02
   1.00 -87.00     0.14159E-01
   1.00 -86.00     0.57028E-01
   1.00 -85.00     0.10940    
   1.00 -84.00     0.16348    
   1.00 -83.00     0.21004    
   1.00 -82.00     0.24288    
   1.00 -81.00     0.25863    
   1.00 -80.00     0.26055    
   1.00 -79.00     0.25405    
   1.00 -78.00     0.24701    
   1.00 -77.00     0.24666    
   1.00 -76.00     0.25545    
   1.00 -75.00     0.27234    
   1.00 -74.00     0.29244    
   1.00 -73.00     0.30879    
   1.00 -72.00     0.31569    
   1.00 -71.00     0.31107    
   1.00 -70.00     0.29663    
   1.00 -69.00     0.27754    
   1.00 -68.00     0.25971    
   1.00 -67.00     0.24661    
   1.00 -66.00     0.23710    
   1.00 -65.00     0.22492    
   1.00 -64.00     0.19988    
   1.00 -63.00     0.15242    
   1.00 -62.00     0.78101E-01
   1.00 -61.00    -0.19748E-01
   1.00 -60.00    -0.12768    
   1.00 -59.00    -0.22526    
   1.00 -58.00    -0.29001    
   1.00 -57.00    -0.30428    
   1.00 -56.00    -0.26178    
   1.00 -55.00    -0.17093    
   1.00 -54.00    -0.54375E-01
   1.00 -53.00     0.56438E-01
   1.00 -52.00     0.12937    
   1.00 -51.00     0.14089    
   1.00 -50.00     0.83078E-01
   1.00 -49.00    -0.33143E-01
   1.00 -48.00    -0.18099    
   1.00 -47.00    -0.32514    
   1.00 -46.00    -0.43168    
   1.00 -45.00    -0.47789    
   1.00 -44.00    -0.45875    
   1.00 -43.00    -0.38813    
   1.00 -42.00    -0.29427    
   1.00 -41.00    -0.21119    
   1.00 -40.00    -0.16835    
   1.00 -39.00    -0.18226    
   1.00 -38.00    -0.25196    
   1.00 -37.00    -0.35999    
   1.00 -36.00    -0.47842    
   1.00 -35.00    -0.57750    
   1.00 -34.00    -0.63464    
   1.00 -33.00    -0.64053    
   1.00 -32.00    -0.60086    
   1.00 -31.00    -0.53339    
   1.00 -30.00    -0.46142    
   1.00 -29.00    -0.40620    
   1.00 -28.00    -0.38053    
   1.00 -27.00    -0.38570    
   1.00 -26.00    -0.41242    
   1.00 -25.00    -0.44512    
   1.00 -24.00    -0.46807    
   1.00 -23.00    -0.47095    
   1.00 -22.00    -0.45231    
   1.00 -21.00    -0.41964    
   1.00 -20.00    -0.38655    
   1.00 -19.00    -0.36788    
   1.00 -18.00    -0.37479    
   1.00 -17.00    -0.41113    
   1.00 -16.00    -0.47242    
   1.00 -15.00    -0.54731    
   1.00 -14.00    -0.62091    
   1.00 -13.00    -0.67875    
   1.00 -12.00    -0.71001    
   1.00 -11.00    -0.70932    
   1.00 -10.00    -0.67675    
   1.00  -9.00    -0.61654    
   1.00  -8.00    -0.53537    
   1.00  -7.00    -0.44081    
   1.00  -6.00    -0.34059    
   1.00  -5.00    -0.24253    
   1.00  -4.00    -0.15470    
   1.00  -3.00    -0.85245E-01
   1.00  -2.00    -0.41434E-01
   1.00  -1.00    -0.27970E-01
   1.00   0.00    -0.45054E-01
   1.00   1.00    -0.87053E-01
   1.00   2.00    -0.14258    
   1.00   3.00    -0.19640    
   1.00   4.00    -0.23298    
   1.00   5.00    -0.24070    
   1.00   6.00    -0.21553    
   1.00   7.00    -0.16276    
   1.00   8.00    -0.96099E-01
   1.00   9.00    -0.33964E-01
   1.00  10.00     0.58893E-02
   1.00  11.00     0.11975E-01
   1.00  12.00    -0.16906E-01
   1.00  13.00    -0.70589E-01
   1.00  14.00    -0.12990    
   1.00  15.00    -0.17190    
   1.00  16.00    -0.17647    
   1.00  17.00    -0.13248    
   1.00  18.00    -0.41485E-01
   1.00  19.00     0.81930E-01
   1.00  20.00     0.21332    
   1.00  21.00     0.32417    
   1.00  22.00     0.38861    
   1.00  23.00     0.38925    
   1.00  24.00     0.32075    
   1.00  25.00     0.19037    
   1.00  26.00     0.15777E-01
   1.00  27.00    -0.17906    
   1.00  28.00    -0.36861    
   1.00  29.00    -0.53004    
   1.00  30.00    -0.64619    
   1.00  31.00    -0.70718    
   1.00  32.00    -0.71075    
   1.00  33.00    -0.66187    
   1.00  34.00    -0.57188    
   1.00  35.00    -0.45728    
   1.00  36.00    -0.33801    
   1.00  37.00    -0.23504    
   1.00  38.00    -0.16717    
   1.00  39.00    -0.14743    
   1.00  40.00    -0.17987    
   1.00  41.00    -0.25768    
   1.00  42.00    -0.36365    
   1.00  43.00    -0.47323    
   1.00  44.00    -0.55994    
   1.00  45.00    -0.60188    
   1.00  46.00    -0.58743    
   1.00  47.00    -0.51874    
   1.00  48.00    -0.41128    
   1.00  49.00    -0.28978    
   1.00  50.00    -0.18128    
   1.00  51.00    -0.10719    
   1.00  52.00    -0.77145E-01
   1.00  53.00    -0.86056E-01
   1.00  54.00    -0.11614    
   1.00  55.00    -0.14267    
   1.00  56.00    -0.14182    
   1.00  57.00    -0.99054E-01
   1.00  58.00    -0.13693E-01
   1.00  59.00     0.99960E-01
   1.00  60.00     0.21695    
   1.00  61.00     0.30921    
   1.00  62.00     0.35385    
   1.00  63.00     0.34066    
   1.00  64.00     0.27431    
   1.00  65.00     0.17324    
   1.00  66.00     0.63252E-01
   1.00  67.00    -0.30130E-01
   1.00  68.00    -0.89447E-01
   1.00  69.00    -0.10992    
   1.00  70.00    -0.99446E-01
   1.00  71.00    -0.74349E-01
   1.00  72.00    -0.52710E-01
   1.00  73.00    -0.48216E-01
   1.00  74.00    -0.63982E-01
   1.00  75.00    -0.92149E-01
   1.00  76.00    -0.11649    
   1.00  77.00    -0.11991    
   1.00  78.00    -0.89230E-01
   1.00  79.00    -0.22339E-01
   1.00  80.00     0.71423E-01
   1.00  81.00     0.17301    
   1.00  82.00     0.26037    
   1.00  83.00     0.31392    
   1.00  84.00     0.32347    
   1.00  85.00     0.29140    
   1.00  86.00     0.23078    
   1.00  87.00     0.16173    
   1.00  88.00     0.10112    
   1.00  89.00     0.64240E-01
   2.00 -89.00    -0.69301E-02
   2.00 -88.00    -0.83259E-02
   2.00 -87.00     0.14028E-01
   2.00 -86.00     0.56626E-01
   2.00 -85.00     0.10838    
   2.00 -84.00     0.16061    
   2.00 -83.00     0.20433    
   2.00 -82.00     0.23204    
   2.00 -81.00     0.24183    
   2.00 -80.00     0.23785    
   2.00 -79.00     0.22670    
   2.00 -78.00     0.21756    
   2.00 -77.00     0.21844    
   2.00 -76.00     0.23148    
   2.00 -75.00     0.25437    
   2.00 -74.00     0.28016    
   2.00 -73.00     0.29956    
   2.00 -72.00     0.30508    
   2.00 -71.00     0.29382    
   2.00 -70.00     0.26849    
   2.00 -69.00     0.23679    
   2.00 -68.00     0.20826    
   2.00 -67.00     0.19015    
   2.00 -66.00     0.18405    
   2.00 -65.00     0.18462    
   2.00 -64.00     0.17984    
   2.00 -63.00     0.15642    
   2.00 -62.00     0.10440    
   2.00 -61.00     0.21688E-01
   2.00 -60.00    -0.82529E-01
   2.00 -59.00    -0.18946    
   2.00 -58.00    -0.27523    
   2.00 -57.00    -0.31788    
   2.00 -56.00    -0.30503    
   2.00 -55.00    -0.23865    
   2.00 -54.00    -0.13626    
   2.00 -53.00    -0.26830E-01
   2.00 -52.00     0.56952E-01
   2.00 -51.00     0.88066E-01
   2.00 -50.00     0.53445E-01
   2.00 -49.00    -0.41515E-01
   2.00 -48.00    -0.17429    
   2.00 -47.00    -0.31160    
   2.00 -46.00    -0.41907    
   2.00 -45.00    -0.47144    
   2.00 -44.00    -0.46024    
   2.00 -43.00    -0.39618    
   2.00 -42.00    -0.30588    
   2.00 -41.00    -0.22366    
   2.00 -40.00    -0.18123    
   2.00 -39.00    -0.19824    
   2.00 -38.00    -0.27657    
   2.00 -37.00    -0.40024    
   2.00 -36.00    -0.54048    
   2.00 -35.00    -0.66448    
   2.00 -34.00    -0.74498    
   2.00 -33.00    -0.76764    
   2.00 -32.00    -0.73423    
   2.00 -31.00    -0.66080    
   2.00 -30.00    -0.57177    
   2.00 -29.00    -0.49203    
   2.00 -28.00    -0.43967    
   2.00 -27.00    -0.42146    
   2.00 -26.00    -0.43236    
   2.00 -25.00    -0.45885    
   2.00 -24.00    -0.48453    
   2.00 -23.00    -0.49618    
   2.00 -22.00    -0.48809    
   2.00 -21.00    -0.46349    
   2.00 -20.00    -0.43282    
   2.00 -19.00    -0.40965    
   2.00 -18.00    -0.40583    
   2.00 -17.00    -0.42753    
   2.00 -16.00    -0.47321    
   2.00 -15.00    -0.53420    
   2.00 -14.00    -0.59725    
   2.00 -13.00    -0.64816    
   2.00 -12.00    -0.67521    
   2.00 -11.00    -0.67147    
   2.00 -10.00    -0.63559    
   2.00  -9.00    -0.57115    
   2.00  -8.00    -0.48519    
   2.00  -7.00    -0.38658    
   2.00  -6.00    -0.28483    
   2.00  -5.00    -0.18925    
   2.00  -4.00    -0.10852    
   2.00  -3.00    -0.50169E-01
   2.00  -2.00    -0.19644E-01
   2.00  -1.00    -0.19076E-01
   2.00   0.00    -0.46073E-01
   2.00   1.00    -0.93136E-01
   2.00   2.00    -0.14829    
   2.00   3.00    -0.19718    
   2.00   4.00    -0.22629    
   2.00   5.00    -0.22664    
   2.00   6.00    -0.19655    
   2.00   7.00    -0.14275    
   2.00   8.00    -0.78937E-01
   2.00   9.00    -0.22137E-01
   2.00  10.00     0.12339E-01
   2.00  11.00     0.15809E-01
   2.00  12.00    -0.10521E-01
   2.00  13.00    -0.55095E-01
   2.00  14.00    -0.98682E-01
   2.00  15.00    -0.11953    
   2.00  16.00    -0.99621E-01
   2.00  17.00    -0.30132E-01
   2.00  18.00     0.85341E-01
   2.00  19.00     0.23088    
   2.00  20.00     0.38151    
   2.00  21.00     0.50878    
   2.00  22.00     0.58702    
   2.00  23.00     0.59874    
   2.00  24.00     0.53785    
   2.00  25.00     0.41015    
   2.00  26.00     0.23141    
   2.00  27.00     0.23862E-01
   2.00  28.00    -0.18785    
   2.00  29.00    -0.38029    
   2.00  30.00    -0.53391    
   2.00  31.00    -0.63471    
   2.00  32.00    -0.67519    
   2.00  33.00    -0.65489    
   2.00  34.00    -0.58066    
   2.00  35.00    -0.46648    
   2.00  36.00    -0.33242    
   2.00  37.00    -0.20234    
   2.00  38.00    -0.10021    
   2.00  39.00    -0.45536E-01
   2.00  40.00    -0.48797E-01
   2.00  41.00    -0.10828    
   2.00  42.00    -0.20948    
   2.00  43.00    -0.32770    
   2.00  44.00    -0.43359    
   2.00  45.00    -0.50038    
   2.00  46.00    -0.51083    
   2.00  47.00    -0.46193    
   2.00  48.00    -0.36562    
   2.00  49.00    -0.24536    
   2.00  50.00    -0.12936    
   2.00  51.00    -0.42045E-01
   2.00  52.00     0.28428E-02
   2.00  53.00     0.62727E-02
   2.00  54.00    -0.17048E-01
   2.00  55.00    -0.43933E-01
   2.00  56.00    -0.50327E-01
   2.00  57.00    -0.19974E-01
   2.00  58.00     0.50362E-01
   2.00  59.00     0.14900    
   2.00  60.00     0.25320    
   2.00  61.00     0.33592    
   2.00  62.00     0.37441    
   2.00  63.00     0.35761    
   2.00  64.00     0.28903    
   2.00  65.00     0.18597    
   2.00  66.00     0.73474E-01
   2.00  67.00    -0.23044E-01
   2.00  68.00    -0.85808E-01
   2.00  69.00    -0.10935    
   2.00  70.00    -0.10093    
   2.00  71.00    -0.76470E-01
   2.00  72.00    -0.54052E-01
   2.00  73.00    -0.47729E-01
   2.00  74.00    -0.61175E-01
   2.00  75.00    -0.87078E-01
   2.00  76.00    -0.10953    
   2.00  77.00    -0.11156    
   2.00  78.00    -0.79766E-01
   2.00  79.00    -0.11862E-01
   2.00  80.00     0.83068E-01
   2.00  81.00     0.18595    
   2.00  82.00     0.27458    
   2.00  83.00     0.32910    
   2.00  84.00     0.33867    
   2.00  85.00     0.30533    
   2.00  86.00     0.24252    
   2.00  87.00     0.17041    
   2.00  88.00     0.10651    
   2.00  89.00     0.66611E-01
   3.00 -89.00    -0.69250E-02
   3.00 -88.00    -0.83357E-02
   3.00 -87.00     0.14049E-01
   3.00 -86.00     0.56451E-01
   3.00 -85.00     0.10773    
   3.00 -84.00     0.15825    
   3.00 -83.00     0.19920    
   3.00 -82.00     0.22180    
   3.00 -81.00     0.22554    
   3.00 -80.00     0.21543    
   3.00 -79.00     0.19931    
   3.00 -78.00     0.18766    
   3.00 -77.00     0.18927    
   3.00 -76.00     0.20606    
   3.00 -75.00     0.23447    
   3.00 -74.00     0.26551    
   3.00 -73.00     0.28757    
   3.00 -72.00     0.29135    
   3.00 -71.00     0.27312    
   3.00 -70.00     0.23659    
   3.00 -69.00     0.19209    
   3.00 -68.00     0.15287    
   3.00 -67.00     0.13011    
   3.00 -66.00     0.12835    
   3.00 -65.00     0.14325    
   3.00 -64.00     0.16112    
   3.00 -63.00     0.16474    
   3.00 -62.00     0.13841    
   3.00 -61.00     0.74106E-01
   3.00 -60.00    -0.23781E-01
   3.00 -59.00    -0.13871    
   3.00 -58.00    -0.24587    
   3.00 -57.00    -0.31929    
   3.00 -56.00    -0.34043    
   3.00 -55.00    -0.30444    
   3.00 -54.00    -0.22304    
   3.00 -53.00    -0.12183    
   3.00 -52.00    -0.33198E-01
   3.00 -51.00     0.13117E-01
   3.00 -50.00    -0.62314E-03
   3.00 -49.00    -0.74501E-01
   3.00 -48.00    -0.19057    
   3.00 -47.00    -0.31827    
   3.00 -46.00    -0.42360    
   3.00 -45.00    -0.47962    
   3.00 -44.00    -0.47509    
   3.00 -43.00    -0.41791    
   3.00 -42.00    -0.33303    
   3.00 -41.00    -0.25462    
   3.00 -40.00    -0.21591    
   3.00 -39.00    -0.23876    
   3.00 -38.00    -0.32718    
   3.00 -37.00    -0.46605    
   3.00 -36.00    -0.62567    
   3.00 -35.00    -0.77048    
   3.00 -34.00    -0.86929    
   3.00 -33.00    -0.90380    
   3.00 -32.00    -0.87296    
   3.00 -31.00    -0.79208    
   3.00 -30.00    -0.68732    
   3.00 -29.00    -0.58737    
   3.00 -28.00    -0.51518    
   3.00 -27.00    -0.48215    
   3.00 -26.00    -0.48634    
   3.00 -25.00    -0.51495    
   3.00 -24.00    -0.54984    
   3.00 -23.00    -0.57409    
   3.00 -22.00    -0.57745    
   3.00 -21.00    -0.55906    
   3.00 -20.00    -0.52675    
   3.00 -19.00    -0.49366    
   3.00 -18.00    -0.47324    
   3.00 -17.00    -0.47468    
   3.00 -16.00    -0.49994    
   3.00 -15.00    -0.54326    
   3.00 -14.00    -0.59302    
   3.00 -13.00    -0.63513    
   3.00 -12.00    -0.65673    
   3.00 -11.00    -0.64922    
   3.00 -10.00    -0.60973    
   3.00  -9.00    -0.54113    
   3.00  -8.00    -0.45081    
   3.00  -7.00    -0.34880    
   3.00  -6.00    -0.24602    
   3.00  -5.00    -0.15282    
   3.00  -4.00    -0.77915E-01
   3.00  -3.00    -0.27643E-01
   3.00  -2.00    -0.52726E-02
   3.00  -1.00    -0.10359E-01
   3.00   0.00    -0.38330E-01
   3.00   1.00    -0.80647E-01
   3.00   2.00    -0.12586    
   3.00   3.00    -0.16167    
   3.00   4.00    -0.17767    
   3.00   5.00    -0.16814    
   3.00   6.00    -0.13398    
   3.00   7.00    -0.83029E-01
   3.00   8.00    -0.28347E-01
   3.00   9.00     0.15288E-01
   3.00  10.00     0.35790E-01
   3.00  11.00     0.27814E-01
   3.00  12.00    -0.48323E-02
   3.00  13.00    -0.49341E-01
   3.00  14.00    -0.86747E-01
   3.00  15.00    -0.96820E-01
   3.00  16.00    -0.63675E-01
   3.00  17.00     0.19470E-01
   3.00  18.00     0.14776    
   3.00  19.00     0.30512    
   3.00  20.00     0.46739    
   3.00  21.00     0.60751    
   3.00  22.00     0.70099    
   3.00  23.00     0.73070    
   3.00  24.00     0.68951    
   3.00  25.00     0.58086    
   3.00  26.00     0.41713    
   3.00  27.00     0.21699    
   3.00  28.00     0.22851E-02
   3.00  29.00    -0.20469    
   3.00  30.00    -0.38333    
   3.00  31.00    -0.51633    
   3.00  32.00    -0.59117    
   3.00  33.00    -0.60160    
   3.00  34.00    -0.54917    
   3.00  35.00    -0.44418    
   3.00  36.00    -0.30550    
   3.00  37.00    -0.15857    
   3.00  38.00    -0.31395E-01
   3.00  39.00     0.50915E-01
   3.00  40.00     0.71919E-01
   3.00  41.00     0.28312E-01
   3.00  42.00    -0.68374E-01
   3.00  43.00    -0.19387    
   3.00  44.00    -0.31664    
   3.00  45.00    -0.40579    
   3.00  46.00    -0.43901    
   3.00  47.00    -0.40848    
   3.00  48.00    -0.32269    
   3.00  49.00    -0.20370    
   3.00  50.00    -0.80539E-01
   3.00  51.00     0.19672E-01
   3.00  52.00     0.79400E-01
   3.00  53.00     0.95609E-01
   3.00  54.00     0.79888E-01
   3.00  55.00     0.53695E-01
   3.00  56.00     0.40992E-01
   3.00  57.00     0.59499E-01
   3.00  58.00     0.11481    
   3.00  59.00     0.19784    
   3.00  60.00     0.28821    
   3.00  61.00     0.36019    
   3.00  62.00     0.39144    
   3.00  63.00     0.37038    
   3.00  64.00     0.29951    
   3.00  65.00     0.19500    
   3.00  66.00     0.81038E-01
   3.00  67.00    -0.17366E-01
   3.00  68.00    -0.82361E-01
   3.00  69.00    -0.10806    
   3.00  70.00    -0.10120    
   3.00  71.00    -0.77350E-01
   3.00  72.00    -0.54583E-01
   3.00  73.00    -0.47090E-01
   3.00  74.00    -0.58939E-01
   3.00  75.00    -0.83195E-01
   3.00  76.00    -0.10417    
   3.00  77.00    -0.10495    
   3.00  78.00    -0.71978E-01
   3.00  79.00    -0.28233E-02
   3.00  80.00     0.93599E-01
   3.00  81.00     0.19811    
   3.00  82.00     0.28828    
   3.00  83.00     0.34400    
   3.00  84.00     0.35372    
   3.00  85.00     0.31921    
   3.00  86.00     0.25425    
   3.00  87.00     0.17905    
   3.00  88.00     0.11191    
   3.00  89.00     0.68985E-01
   4.00 -89.00    -0.68997E-02
   4.00 -88.00    -0.82815E-02
   4.00 -87.00     0.14221E-01
   4.00 -86.00     0.56507E-01
   4.00 -85.00     0.10745    
   4.00 -84.00     0.15641    
   4.00 -83.00     0.19466    
   4.00 -82.00     0.21220    
   4.00 -81.00     0.20988    
   4.00 -80.00     0.19346    
   4.00 -79.00     0.17206    
   4.00 -78.00     0.15753    
   4.00 -77.00     0.15933    
   4.00 -76.00     0.17935    
   4.00 -75.00     0.21279    
   4.00 -74.00     0.24866    
   4.00 -73.00     0.27304    
   4.00 -72.00     0.27482    
   4.00 -71.00     0.24947    
   4.00 -70.00     0.20164    
   4.00 -69.00     0.14432    
   4.00 -68.00     0.94535E-01
   4.00 -67.00     0.67531E-01
   4.00 -66.00     0.70935E-01
   4.00 -65.00     0.10145    
   4.00 -64.00     0.14401    
   4.00 -63.00     0.17729    
   4.00 -62.00     0.17967    
   4.00 -61.00     0.13690    
   4.00 -60.00     0.48059E-01
   4.00 -59.00    -0.73091E-01
   4.00 -58.00    -0.20132    
   4.00 -57.00    -0.30695    
   4.00 -56.00    -0.36533    
   4.00 -55.00    -0.36457    
   4.00 -54.00    -0.31001    
   4.00 -53.00    -0.22314    
   4.00 -52.00    -0.13517    
   4.00 -51.00    -0.77799E-01
   4.00 -50.00    -0.72916E-01
   4.00 -49.00    -0.12593    
   4.00 -48.00    -0.22371    
   4.00 -47.00    -0.33902    
   4.00 -46.00    -0.43903    
   4.00 -45.00    -0.49603    
   4.00 -44.00    -0.49667    
   4.00 -43.00    -0.44645    
   4.00 -42.00    -0.36858    
   4.00 -41.00    -0.29667    
   4.00 -40.00    -0.26464    
   4.00 -39.00    -0.29570    
   4.00 -38.00    -0.39511    
   4.00 -37.00    -0.54809    
   4.00 -36.00    -0.72392    
   4.00 -35.00    -0.88469    
   4.00 -34.00    -0.99614    
   4.00 -33.00     -1.0371    
   4.00 -32.00     -1.0049    
   4.00 -31.00    -0.91520    
   4.00 -30.00    -0.79641    
   4.00 -29.00    -0.68110    
   4.00 -28.00    -0.59658    
   4.00 -27.00    -0.55790    
   4.00 -26.00    -0.56494    
   4.00 -25.00    -0.60436    
   4.00 -24.00    -0.65514    
   4.00 -23.00    -0.69599    
   4.00 -22.00    -0.71192    
   4.00 -21.00    -0.69823    
   4.00 -20.00    -0.66086    
   4.00 -19.00    -0.61329    
   4.00 -18.00    -0.57145    
   4.00 -17.00    -0.54821    
   4.00 -16.00    -0.54938    
   4.00 -15.00    -0.57220    
   4.00 -14.00    -0.60651    
   4.00 -13.00    -0.63805    
   4.00 -12.00    -0.65256    
   4.00 -11.00    -0.63955    
   4.00 -10.00    -0.59458    
   4.00  -9.00    -0.51989    
   4.00  -8.00    -0.42326    
   4.00  -7.00    -0.31595    
   4.00  -6.00    -0.21026    
   4.00  -5.00    -0.11733    
   4.00  -4.00    -0.45624E-01
   4.00  -3.00     0.78348E-05
   4.00  -2.00     0.18648E-01
   4.00  -1.00     0.13268E-01
   4.00   0.00    -0.97154E-02
   4.00   1.00    -0.41312E-01
   4.00   2.00    -0.71349E-01
   4.00   3.00    -0.90337E-01
   4.00   4.00    -0.91548E-01
   4.00   5.00    -0.72839E-01
   4.00   6.00    -0.37617E-01
   4.00   7.00     0.55628E-02
   4.00   8.00     0.44904E-01
   4.00   9.00     0.68527E-01
   4.00  10.00     0.68085E-01
   4.00  11.00     0.41818E-01
   4.00  12.00    -0.39430E-02
   4.00  13.00    -0.55480E-01
   4.00  14.00    -0.94570E-01
   4.00  15.00    -0.10291    
   4.00  16.00    -0.66929E-01
   4.00  17.00     0.18367E-01
   4.00  18.00     0.14753    
   4.00  19.00     0.30537    
   4.00  20.00     0.46986    
   4.00  21.00     0.61659    
   4.00  22.00     0.72337    
   4.00  23.00     0.77404    
   4.00  24.00     0.76058    
   4.00  25.00     0.68355    
   4.00  26.00     0.55096    
   4.00  27.00     0.37646    
   4.00  28.00     0.17745    
   4.00  29.00    -0.26614E-01
   4.00  30.00    -0.21558    
   4.00  31.00    -0.37003    
   4.00  32.00    -0.47313    
   4.00  33.00    -0.51307    
   4.00  34.00    -0.48572    
   4.00  35.00    -0.39690    
   4.00  36.00    -0.26309    
   4.00  37.00    -0.10991    
   4.00  38.00     0.32010E-01
   4.00  39.00     0.13319    
   4.00  40.00     0.17211    
   4.00  41.00     0.14090    
   4.00  42.00     0.48043E-01
   4.00  43.00    -0.83090E-01
   4.00  44.00    -0.21959    
   4.00  45.00    -0.32729    
   4.00  46.00    -0.37968    
   4.00  47.00    -0.36471    
   4.00  48.00    -0.28773    
   4.00  49.00    -0.16931    
   4.00  50.00    -0.39022E-01
   4.00  51.00     0.73759E-01
   4.00  52.00     0.14814    
   4.00  53.00     0.17736    
   4.00  54.00     0.16999    
   4.00  55.00     0.14564    
   4.00  56.00     0.12789    
   4.00  57.00     0.13563    
   4.00  58.00     0.17654    
   4.00  59.00     0.24404    
   4.00  60.00     0.32012    
   4.00  61.00     0.38059    
   4.00  62.00     0.40383    
   4.00  63.00     0.37803    
   4.00  64.00     0.30488    
   4.00  65.00     0.19949    
   4.00  66.00     0.85111E-01
   4.00  67.00    -0.13867E-01
   4.00  68.00    -0.79765E-01
   4.00  69.00    -0.10652    
   4.00  70.00    -0.10057    
   4.00  71.00    -0.77116E-01
   4.00  72.00    -0.54270E-01
   4.00  73.00    -0.46150E-01
   4.00  74.00    -0.57066E-01
   4.00  75.00    -0.80276E-01
   4.00  76.00    -0.10021    
   4.00  77.00    -0.99934E-01
   4.00  78.00    -0.65771E-01
   4.00  79.00     0.48296E-02
   4.00  80.00     0.10303    
   4.00  81.00     0.20949    
   4.00  82.00     0.30148    
   4.00  83.00     0.35858    
   4.00  84.00     0.36861    
   4.00  85.00     0.33302    
   4.00  86.00     0.26594    
   4.00  87.00     0.18766    
   4.00  88.00     0.11730    
   4.00  89.00     0.71361E-01
   5.00 -89.00    -0.68534E-02
   5.00 -88.00    -0.81642E-02
   5.00 -87.00     0.14540E-01
   5.00 -86.00     0.56795E-01
   5.00 -85.00     0.10755    
   5.00 -84.00     0.15511    
   5.00 -83.00     0.19073    
   5.00 -82.00     0.20333    
   5.00 -81.00     0.19493    
   5.00 -80.00     0.17208    
   5.00 -79.00     0.14514    
   5.00 -78.00     0.12733    
   5.00 -77.00     0.12883    
   5.00 -76.00     0.15153    
   5.00 -75.00     0.18952    
   5.00 -74.00     0.22982    
   5.00 -73.00     0.25625    
   5.00 -72.00     0.25590    
   5.00 -71.00     0.22344    
   5.00 -70.00     0.16441    
   5.00 -69.00     0.94450E-01
   5.00 -68.00     0.34365E-01
   5.00 -67.00     0.35056E-02
   5.00 -66.00     0.12715E-01
   5.00 -65.00     0.59814E-01
   5.00 -64.00     0.12861    
   5.00 -63.00     0.19361    
   5.00 -62.00     0.22728    
   5.00 -61.00     0.20886    
   5.00 -60.00     0.13179    
   5.00 -59.00     0.65827E-02
   5.00 -58.00    -0.14158    
   5.00 -57.00    -0.27969    
   5.00 -56.00    -0.37715    
   5.00 -55.00    -0.41495    
   5.00 -54.00    -0.39164    
   5.00 -53.00    -0.32395    
   5.00 -52.00    -0.24119    
   5.00 -51.00    -0.17626    
   5.00 -50.00    -0.15467    
   5.00 -49.00    -0.18695    
   5.00 -48.00    -0.26495    
   5.00 -47.00    -0.36523    
   5.00 -46.00    -0.45690    
   5.00 -45.00    -0.51225    
   5.00 -44.00    -0.51651    
   5.00 -43.00    -0.47315    
   5.00 -42.00    -0.40357    
   5.00 -41.00    -0.34039    
   5.00 -40.00    -0.31745    
   5.00 -39.00    -0.35842    
   5.00 -38.00    -0.46903    
   5.00 -37.00    -0.63435    
   5.00 -36.00    -0.82260    
   5.00 -35.00    -0.99397    
   5.00 -34.00     -1.1120    
   5.00 -33.00     -1.1539    
   5.00 -32.00     -1.1164    
   5.00 -31.00     -1.0163    
   5.00 -30.00    -0.88506    
   5.00 -29.00    -0.75892    
   5.00 -28.00    -0.66902    
   5.00 -27.00    -0.63304    
   5.00 -26.00    -0.65152    
   5.00 -25.00    -0.70938    
   5.00 -24.00    -0.78188    
   5.00 -23.00    -0.84283    
   5.00 -22.00    -0.87249    
   5.00 -21.00    -0.86271    
   5.00 -20.00    -0.81816    
   5.00 -19.00    -0.75349    
   5.00 -18.00    -0.68770    
   5.00 -17.00    -0.63778    
   5.00 -16.00    -0.61355    
   5.00 -15.00    -0.61509    
   5.00 -14.00    -0.63341    
   5.00 -13.00    -0.65367    
   5.00 -12.00    -0.65991    
   5.00 -11.00    -0.63953    
   5.00 -10.00    -0.58657    
   5.00  -9.00    -0.50274    
   5.00  -8.00    -0.39648    
   5.00  -7.00    -0.28049    
   5.00  -6.00    -0.16856    
   5.00  -5.00    -0.72701E-01
   5.00  -4.00    -0.10733E-02
   5.00  -3.00     0.42999E-01
   5.00  -2.00     0.60966E-01
   5.00  -1.00     0.58225E-01
   5.00   0.00     0.42804E-01
   5.00   1.00     0.23802E-01
   5.00   2.00     0.97442E-02
   5.00   3.00     0.70085E-02
   5.00   4.00     0.18511E-01
   5.00   5.00     0.42912E-01
   5.00   6.00     0.74635E-01
   5.00   7.00     0.10489    
   5.00   8.00     0.12370    
   5.00   9.00     0.12253    
   5.00  10.00     0.97025E-01
   5.00  11.00     0.48976E-01
   5.00  12.00    -0.13088E-01
   5.00  13.00    -0.75072E-01
   5.00  14.00    -0.12011    
   5.00  15.00    -0.13235    
   5.00  16.00    -0.10084    
   5.00  17.00    -0.22327E-01
   5.00  18.00     0.97594E-01
   5.00  19.00     0.24539    
   5.00  20.00     0.40218    
   5.00  21.00     0.54736    
   5.00  22.00     0.66207    
   5.00  23.00     0.73197    
   5.00  24.00     0.74867    
   5.00  25.00     0.70991    
   5.00  26.00     0.61894    
   5.00  27.00     0.48362    
   5.00  28.00     0.31574    
   5.00  29.00     0.13052    
   5.00  30.00    -0.53839E-01
   5.00  31.00    -0.21722    
   5.00  32.00    -0.33965    
   5.00  33.00    -0.40448    
   5.00  34.00    -0.40219    
   5.00  35.00    -0.33372    
   5.00  36.00    -0.21228    
   5.00  37.00    -0.62365E-01
   5.00  38.00     0.84298E-01
   5.00  39.00     0.19533    
   5.00  40.00     0.24535    
   5.00  41.00     0.22265    
   5.00  42.00     0.13282    
   5.00  43.00    -0.20211E-02
   5.00  44.00    -0.14840    
   5.00  45.00    -0.26993    
   5.00  46.00    -0.33689    
   5.00  47.00    -0.33381    
   5.00  48.00    -0.26331    
   5.00  49.00    -0.14452    
   5.00  50.00    -0.72138E-02
   5.00  51.00     0.11748    
   5.00  52.00     0.20585    
   5.00  53.00     0.24790    
   5.00  54.00     0.24932    
   5.00  55.00     0.22788    
   5.00  56.00     0.20652    
   5.00  57.00     0.20496    
   5.00  58.00     0.23261    
   5.00  59.00     0.28521    
   5.00  60.00     0.34707    
   5.00  61.00     0.39570    
   5.00  62.00     0.41046    
   5.00  63.00     0.37959    
   5.00  64.00     0.30424    
   5.00  65.00     0.19856    
   5.00  66.00     0.84841E-01
   5.00  67.00    -0.13342E-01
   5.00  68.00    -0.78707E-01
   5.00  69.00    -0.10528    
   5.00  70.00    -0.99383E-01
   5.00  71.00    -0.75936E-01
   5.00  72.00    -0.53107E-01
   5.00  73.00    -0.44783E-01
   5.00  74.00    -0.55356E-01
   5.00  75.00    -0.78098E-01
   5.00  76.00    -0.97436E-01
   5.00  77.00    -0.96337E-01
   5.00  78.00    -0.61032E-01
   5.00  79.00     0.11161E-01
   5.00  80.00     0.11139    
   5.00  81.00     0.22008    
   5.00  82.00     0.31415    
   5.00  83.00     0.37283    
   5.00  84.00     0.38330    
   5.00  85.00     0.34674    
   5.00  86.00     0.27759    
   5.00  87.00     0.19623    
   5.00  88.00     0.12268    
   5.00  89.00     0.73738E-01
   6.00 -89.00    -0.67867E-02
   6.00 -88.00    -0.79842E-02
   6.00 -87.00     0.15003E-01
   6.00 -86.00     0.57318E-01
   6.00 -85.00     0.10802    
   6.00 -84.00     0.15436    
   6.00 -83.00     0.18743    
   6.00 -82.00     0.19524    
   6.00 -81.00     0.18082    
   6.00 -80.00     0.15143    
   6.00 -79.00     0.11871    
   6.00 -78.00     0.97289E-01
   6.00 -77.00     0.97966E-01
   6.00 -76.00     0.12282    
   6.00 -75.00     0.16488    
   6.00 -74.00     0.20924    
   6.00 -73.00     0.23753    
   6.00 -72.00     0.23506    
   6.00 -71.00     0.19568    
   6.00 -70.00     0.12577    
   6.00 -69.00     0.43550E-01
   6.00 -68.00    -0.26475E-01
   6.00 -67.00    -0.60836E-01
   6.00 -66.00    -0.45417E-01
   6.00 -65.00     0.18823E-01
   6.00 -64.00     0.11480    
   6.00 -63.00     0.21292    
   6.00 -62.00     0.27981    
   6.00 -61.00     0.28813    
   6.00 -60.00     0.22548    
   6.00 -59.00     0.98708E-01
   6.00 -58.00    -0.67428E-01
   6.00 -57.00    -0.23704    
   6.00 -56.00    -0.37382    
   6.00 -55.00    -0.45167    
   6.00 -54.00    -0.46221    
   6.00 -53.00    -0.41689    
   6.00 -52.00    -0.34255    
   6.00 -51.00    -0.27262    
   6.00 -50.00    -0.23577    
   6.00 -49.00    -0.24733    
   6.00 -48.00    -0.30424    
   6.00 -47.00    -0.38723    
   6.00 -46.00    -0.46795    
   6.00 -45.00    -0.51939    
   6.00 -44.00    -0.52591    
   6.00 -43.00    -0.48924    
   6.00 -42.00    -0.42893    
   6.00 -41.00    -0.37620    
   6.00 -40.00    -0.36406    
   6.00 -39.00    -0.41588    
   6.00 -38.00    -0.53718    
   6.00 -37.00    -0.71251    
   6.00 -36.00    -0.90903    
   6.00 -35.00     -1.0855    
   6.00 -34.00     -1.2043    
   6.00 -33.00     -1.2416    
   6.00 -32.00     -1.1950    
   6.00 -31.00     -1.0831    
   6.00 -30.00    -0.94049    
   6.00 -29.00    -0.80702    
   6.00 -28.00    -0.71705    
   6.00 -27.00    -0.69001    
   6.00 -26.00    -0.72611    
   6.00 -25.00    -0.80771    
   6.00 -24.00    -0.90577    
   6.00 -23.00    -0.98905    
   6.00 -22.00     -1.0333    
   6.00 -21.00     -1.0273    
   6.00 -20.00    -0.97523    
   6.00 -19.00    -0.89338    
   6.00 -18.00    -0.80424    
   6.00 -17.00    -0.72905    
   6.00 -16.00    -0.68145    
   6.00 -15.00    -0.66400    
   6.00 -14.00    -0.66837    
   6.00 -13.00    -0.67874    
   6.00 -12.00    -0.67707    
   6.00 -11.00    -0.64859    
   6.00 -10.00    -0.58580    
   6.00  -9.00    -0.49013    
   6.00  -8.00    -0.37098    
   6.00  -7.00    -0.24278    
   6.00  -6.00    -0.12111    
   6.00  -5.00    -0.19071E-01
   6.00  -4.00     0.55339E-01
   6.00  -3.00     0.10018    
   6.00  -2.00     0.11913    
   6.00  -1.00     0.11984    
   6.00   0.00     0.11176    
   6.00   1.00     0.10396    
   6.00   2.00     0.10327    
   6.00   3.00     0.11305    
   6.00   4.00     0.13266    
   6.00   5.00     0.15770    
   6.00   6.00     0.18096    
   6.00   7.00     0.19397    
   6.00   8.00     0.18899    
   6.00   9.00     0.16112    
   6.00  10.00     0.10997    
   6.00  11.00     0.40633E-01
   6.00  12.00    -0.36685E-01
   6.00  13.00    -0.10816    
   6.00  14.00    -0.15897    
   6.00  15.00    -0.17632    
   6.00  16.00    -0.15227    
   6.00  17.00    -0.85478E-01
   6.00  18.00     0.18420E-01
   6.00  19.00     0.14795    
   6.00  20.00     0.28804    
   6.00  21.00     0.42264    
   6.00  22.00     0.53715    
   6.00  23.00     0.62000    
   6.00  24.00     0.66323    
   6.00  25.00     0.66243    
   6.00  26.00     0.61645    
   6.00  27.00     0.52731    
   6.00  28.00     0.40073    
   6.00  29.00     0.24677    
   6.00  30.00     0.80416E-01
   6.00  31.00    -0.79027E-01
   6.00  32.00    -0.20995    
   6.00  33.00    -0.29216    
   6.00  34.00    -0.31147    
   6.00  35.00    -0.26419    
   6.00  36.00    -0.15974    
   6.00  37.00    -0.20411E-01
   6.00  38.00     0.12244    
   6.00  39.00     0.23513    
   6.00  40.00     0.28982    
   6.00  41.00     0.27193    
   6.00  42.00     0.18452    
   6.00  43.00     0.48181E-01
   6.00  44.00    -0.10381    
   6.00  45.00    -0.23396    
   6.00  46.00    -0.31043    
   6.00  47.00    -0.31526    
   6.00  48.00    -0.24886    
   6.00  49.00    -0.12900    
   6.00  50.00     0.14699E-01
   6.00  51.00     0.14994    
   6.00  52.00     0.25090    
   6.00  53.00     0.30486    
   6.00  54.00     0.31501    
   6.00  55.00     0.29726    
   6.00  56.00     0.27372    
   6.00  57.00     0.26452    
   6.00  58.00     0.28042    
   6.00  59.00     0.31921    
   6.00  60.00     0.36736    
   6.00  61.00     0.40418    
   6.00  62.00     0.41024    
   6.00  63.00     0.37415    
   6.00  64.00     0.29674    
   6.00  65.00     0.19138    
   6.00  66.00     0.79402E-01
   6.00  67.00    -0.16566E-01
   6.00  68.00    -0.79870E-01
   6.00  69.00    -0.10487    
   6.00  70.00    -0.98006E-01
   6.00  71.00    -0.74003E-01
   6.00  72.00    -0.51114E-01
   6.00  73.00    -0.42879E-01
   6.00  74.00    -0.53617E-01
   6.00  75.00    -0.76442E-01
   6.00  76.00    -0.95644E-01
   6.00  77.00    -0.93991E-01
   6.00  78.00    -0.57640E-01
   6.00  79.00     0.16246E-01
   6.00  80.00     0.11870    
   6.00  81.00     0.22989    
   6.00  82.00     0.32628    
   6.00  83.00     0.38672    
   6.00  84.00     0.39777    
   6.00  85.00     0.36035    
   6.00  86.00     0.28918    
   6.00  87.00     0.20476    
   6.00  88.00     0.12806    
   6.00  89.00     0.76114E-01
   7.00 -89.00    -0.66995E-02
   7.00 -88.00    -0.77424E-02
   7.00 -87.00     0.15606E-01
   7.00 -86.00     0.58078E-01
   7.00 -85.00     0.10888    
   7.00 -84.00     0.15418    
   7.00 -83.00     0.18477    
   7.00 -82.00     0.18800    
   7.00 -81.00     0.16764    
   7.00 -80.00     0.13165    
   7.00 -79.00     0.92969E-01
   7.00 -78.00     0.67591E-01
   7.00 -77.00     0.66975E-01
   7.00 -76.00     0.93471E-01
   7.00 -75.00     0.13913    
   7.00 -74.00     0.18721    
   7.00 -73.00     0.21726    
   7.00 -72.00     0.21282    
   7.00 -71.00     0.16691    
   7.00 -70.00     0.86654E-01
   7.00 -69.00    -0.72783E-02
   7.00 -68.00    -0.86787E-01
   7.00 -67.00    -0.12436    
   7.00 -66.00    -0.10262    
   7.00 -65.00    -0.21140E-01
   7.00 -64.00     0.10225    
   7.00 -63.00     0.23409    
   7.00 -62.00     0.33537    
   7.00 -61.00     0.37226    
   7.00 -60.00     0.32641    
   7.00 -59.00     0.20081    
   7.00 -58.00     0.19406E-01
   7.00 -57.00    -0.17943    
   7.00 -56.00    -0.35407    
   7.00 -55.00    -0.47155    
   7.00 -54.00    -0.51649    
   7.00 -53.00    -0.49489    
   7.00 -52.00    -0.43066    
   7.00 -51.00    -0.35725    
   7.00 -50.00    -0.30605    
   7.00 -49.00    -0.29690    
   7.00 -48.00    -0.33180    
   7.00 -47.00    -0.39591    
   7.00 -46.00    -0.46383    
   7.00 -45.00    -0.50976    
   7.00 -44.00    -0.51758    
   7.00 -43.00    -0.48756    
   7.00 -42.00    -0.43726    
   7.00 -41.00    -0.39615    
   7.00 -40.00    -0.39580    
   7.00 -39.00    -0.45867    
   7.00 -38.00    -0.58954    
   7.00 -37.00    -0.77220    
   7.00 -36.00    -0.97294    
   7.00 -35.00     -1.1496    
   7.00 -34.00     -1.2639    
   7.00 -33.00     -1.2923    
   7.00 -32.00     -1.2334    
   7.00 -31.00     -1.1084    
   7.00 -30.00    -0.95486    
   7.00 -29.00    -0.81613    
   7.00 -28.00    -0.72907    
   7.00 -27.00    -0.71416    
   7.00 -26.00    -0.77061    
   7.00 -25.00    -0.87781    
   7.00 -24.00     -1.0023    
   7.00 -23.00     -1.1081    
   7.00 -22.00     -1.1669    
   7.00 -21.00     -1.1652    
   7.00 -20.00     -1.1069    
   7.00 -19.00     -1.0105    
   7.00 -18.00    -0.90205    
   7.00 -17.00    -0.80670    
   7.00 -16.00    -0.74145    
   7.00 -15.00    -0.71077    
   7.00 -14.00    -0.70639    
   7.00 -13.00    -0.71102    
   7.00 -12.00    -0.70427    
   7.00 -11.00    -0.66910    
   7.00 -10.00    -0.59661    
   7.00  -9.00    -0.48817    
   7.00  -8.00    -0.35440    
   7.00  -7.00    -0.21176    
   7.00  -6.00    -0.77895E-01
   7.00  -5.00     0.32779E-01
   7.00  -4.00     0.11212    
   7.00  -3.00     0.15933    
   7.00  -2.00     0.17998    
   7.00  -1.00     0.18372    
   7.00   0.00     0.18128    
   7.00   1.00     0.18162    
   7.00   2.00     0.19004    
   7.00   3.00     0.20723    
   7.00   4.00     0.22955    
   7.00   5.00     0.25018    
   7.00   6.00     0.26093    
   7.00   7.00     0.25417    
   7.00   8.00     0.22475    
   7.00   9.00     0.17143    
   7.00  10.00     0.97592E-01
   7.00  11.00     0.11145E-01
   7.00  12.00    -0.76596E-01
   7.00  13.00    -0.15275    
   7.00  14.00    -0.20516    
   7.00  15.00    -0.22466    
   7.00  16.00    -0.20676    
   7.00  17.00    -0.15233    
   7.00  18.00    -0.67230E-01
   7.00  19.00     0.39113E-01
   7.00  20.00     0.15554    
   7.00  21.00     0.27097    
   7.00  22.00     0.37568    
   7.00  23.00     0.46167    
   7.00  24.00     0.52250    
   7.00  25.00     0.55273    
   7.00  26.00     0.54783    
   7.00  27.00     0.50477    
   7.00  28.00     0.42342    
   7.00  29.00     0.30841    
   7.00  30.00     0.17056    
   7.00  31.00     0.26962E-01
   7.00  32.00    -0.10083    
   7.00  33.00    -0.19069    
   7.00  34.00    -0.22514    
   7.00  35.00    -0.19650    
   7.00  36.00    -0.11039    
   7.00  37.00     0.13864E-01
   7.00  38.00     0.14658    
   7.00  39.00     0.25434    
   7.00  40.00     0.30834    
   7.00  41.00     0.29222    
   7.00  42.00     0.20702    
   7.00  43.00     0.71673E-01
   7.00  44.00    -0.81494E-01
   7.00  45.00    -0.21496    
   7.00  46.00    -0.29594    
   7.00  47.00    -0.30494    
   7.00  48.00    -0.24072    
   7.00  49.00    -0.11979    
   7.00  50.00     0.28790E-01
   7.00  51.00     0.17222    
   7.00  52.00     0.28331    
   7.00  53.00     0.34738    
   7.00  54.00     0.36544    
   7.00  55.00     0.35169    
   7.00  56.00     0.32717    
   7.00  57.00     0.31202    
   7.00  58.00     0.31791    
   7.00  59.00     0.34428    
   7.00  60.00     0.37956    
   7.00  61.00     0.40490    
   7.00  62.00     0.40226    
   7.00  63.00     0.36090    
   7.00  64.00     0.28162    
   7.00  65.00     0.17721    
   7.00  66.00     0.68053E-01
   7.00  67.00    -0.24246E-01
   7.00  68.00    -0.83891E-01
   7.00  69.00    -0.10581    
   7.00  70.00    -0.96797E-01
   7.00  71.00    -0.71519E-01
   7.00  72.00    -0.48322E-01
   7.00  73.00    -0.40344E-01
   7.00  74.00    -0.51674E-01
   7.00  75.00    -0.75094E-01
   7.00  76.00    -0.94624E-01
   7.00  77.00    -0.92723E-01
   7.00  78.00    -0.55463E-01
   7.00  79.00     0.20170E-01
   7.00  80.00     0.12502    
   7.00  81.00     0.23893    
   7.00  82.00     0.33786    
   7.00  83.00     0.40022    
   7.00  84.00     0.41198    
   7.00  85.00     0.37383    
   7.00  86.00     0.30071    
   7.00  87.00     0.21324    
   7.00  88.00     0.13342    
   7.00  89.00     0.78488E-01
   8.00 -89.00    -0.65920E-02
   8.00 -88.00    -0.74395E-02
   8.00 -87.00     0.16345E-01
   8.00 -86.00     0.59075E-01
   8.00 -85.00     0.11011    
   8.00 -84.00     0.15456    
   8.00 -83.00     0.18276    
   8.00 -82.00     0.18165    
   8.00 -81.00     0.15547    
   8.00 -80.00     0.11289    
   8.00 -79.00     0.68085E-01
   8.00 -78.00     0.38447E-01
   8.00 -77.00     0.36093E-01
   8.00 -76.00     0.63725E-01
   8.00 -75.00     0.11253    
   8.00 -74.00     0.16406    
   8.00 -73.00     0.19586    
   8.00 -72.00     0.18973    
   8.00 -71.00     0.13787    
   8.00 -70.00     0.48007E-01
   8.00 -69.00    -0.56913E-01
   8.00 -68.00    -0.14538    
   8.00 -67.00    -0.18598    
   8.00 -66.00    -0.15811    
   8.00 -65.00    -0.59810E-01
   8.00 -64.00     0.90437E-01
   8.00 -63.00     0.25571    
   8.00 -62.00     0.39168    
   8.00 -61.00     0.45823    
   8.00 -60.00     0.43118    
   8.00 -59.00     0.30956    
   8.00 -58.00     0.11621    
   8.00 -57.00    -0.10841    
   8.00 -56.00    -0.31782    
   8.00 -55.00    -0.47254    
   8.00 -54.00    -0.55045    
   8.00 -53.00    -0.55203    
   8.00 -52.00    -0.49807    
   8.00 -51.00    -0.42168    
   8.00 -50.00    -0.35664    
   8.00 -49.00    -0.32694    
   8.00 -48.00    -0.33956    
   8.00 -47.00    -0.38413    
   8.00 -46.00    -0.43844    
   8.00 -45.00    -0.47820    
   8.00 -44.00    -0.48706    
   8.00 -43.00    -0.46390    
   8.00 -42.00    -0.42421    
   8.00 -41.00    -0.39538    
   8.00 -40.00    -0.40714    
   8.00 -39.00    -0.48060    
   8.00 -38.00    -0.61953    
   8.00 -37.00    -0.80692    
   8.00 -36.00     -1.0084    
   8.00 -35.00     -1.1814    
   8.00 -34.00     -1.2876    
   8.00 -33.00     -1.3041    
   8.00 -32.00     -1.2312    
   8.00 -31.00     -1.0924    
   8.00 -30.00    -0.92830    
   8.00 -29.00    -0.78495    
   8.00 -28.00    -0.70125    
   8.00 -27.00    -0.69819    
   8.00 -26.00    -0.77374    
   8.00 -25.00    -0.90439    
   8.00 -24.00     -1.0528    
   8.00 -23.00     -1.1787    
   8.00 -22.00     -1.2507    
   8.00 -21.00     -1.2537    
   8.00 -20.00     -1.1919    
   8.00 -19.00     -1.0859    
   8.00 -18.00    -0.96495    
   8.00 -17.00    -0.85775    
   8.00 -16.00    -0.78382    
   8.00 -15.00    -0.74872    
   8.00 -14.00    -0.74364    
   8.00 -13.00    -0.74936    
   8.00 -12.00    -0.74298    
   8.00 -11.00    -0.70520    
   8.00 -10.00    -0.62584    
   8.00  -9.00    -0.50638    
   8.00  -8.00    -0.35884    
   8.00  -7.00    -0.20182    
   8.00  -6.00    -0.55178E-01
   8.00  -5.00     0.65168E-01
