  -5.00 -38.00    -0.16517    
  -5.00 -37.00    -0.19902    
  -5.00 -36.00    -0.28245    
  -5.00 -35.00    -0.40108    
  -5.00 -34.00    -0.52865    
  -5.00 -33.00    -0.63438    
  -5.00 -32.00    -0.69207    
  -5.00 -31.00    -0.68812    
  -5.00 -30.00    -0.62555    
  -5.00 -29.00    -0.52290    
  -5.00 -28.00    -0.40820    
  -5.00 -27.00    -0.30989    
  -5.00 -26.00    -0.24788    
  -5.00 -25.00    -0.22760    
  -5.00 -24.00    -0.23901    
  -5.00 -23.00    -0.26090    
  -5.00 -22.00    -0.26908    
  -5.00 -21.00    -0.24544    
  -5.00 -20.00    -0.18496    
  -5.00 -19.00    -0.98262E-01
  -5.00 -18.00    -0.86099E-02
  -5.00 -17.00     0.55436E-01
  -5.00 -16.00     0.69427E-01
  -5.00 -15.00     0.21303E-01
  -5.00 -14.00    -0.84178E-01
  -5.00 -13.00    -0.22631    
  -5.00 -12.00    -0.37431    
  -5.00 -11.00    -0.49621    
  -5.00 -10.00    -0.56789    
  -5.00  -9.00    -0.57940    
  -5.00  -8.00    -0.53663    
  -5.00  -7.00    -0.45810    
  -5.00  -6.00    -0.36805    
  -5.00  -5.00    -0.28851    
  -5.00  -4.00    -0.23277    
  -5.00  -3.00    -0.20260    
  -5.00  -2.00    -0.18964    
  -5.00  -1.00    -0.18036    
  -5.00   0.00    -0.16244    
  -5.00   1.00    -0.13030    
  -5.00   2.00    -0.87582E-01
  -5.00   3.00    -0.45970E-01
  -5.00   4.00    -0.20648E-01
  -5.00   5.00    -0.24300E-01
  -5.00   6.00    -0.61801E-01
  -5.00   7.00    -0.12760    
  -5.00   8.00    -0.20678    
  -5.00   9.00    -0.27952    
  -5.00  10.00    -0.32733    
  -5.00  11.00    -0.33898    
  -5.00  12.00    -0.31413    
  -5.00  13.00    -0.26322    
  -5.00  14.00    -0.20399    
  -5.00  15.00    -0.15553    
  -5.00  16.00    -0.13219    
  -5.00  17.00    -0.13915    
  -5.00  18.00    -0.17132    
  -5.00  19.00    -0.21561    
  -5.00  20.00    -0.25591    
  -5.00  21.00    -0.27880    
  -5.00  22.00    -0.27814    
  -5.00  23.00    -0.25681    
  -5.00  24.00    -0.22529    
  -5.00  25.00    -0.19744    
  -5.00  26.00    -0.18517    
  -5.00  27.00    -0.19371    
  -5.00  28.00    -0.21936    
  -5.00  29.00    -0.25027    
  -5.00  30.00    -0.27011    
  -5.00  31.00    -0.26342    
  -5.00  32.00    -0.22080    
  -5.00  33.00    -0.14224    
  -5.00  34.00    -0.37670E-01
  -5.00  35.00     0.75579E-01
  -5.00  36.00     0.17746    
  -5.00  37.00     0.25059    
  -5.00  38.00     0.28466    
  -5.00  39.00     0.27873    
  -5.00  40.00     0.24073    
  -5.00  41.00     0.18467    
  -5.00  42.00     0.12646    
  -5.00  43.00     0.79512E-01
  -5.00  44.00     0.51788E-01
  -5.00  45.00     0.44458E-01
  -5.00  46.00     0.52358E-01
  -5.00  47.00     0.66608E-01
  -5.00  48.00     0.77158E-01
  -5.00  49.00     0.75203E-01
  -5.00  50.00     0.55425E-01
  -5.00  51.00     0.16295E-01
  -5.00  52.00    -0.40214E-01
  -5.00  53.00    -0.10932    
  -5.00  54.00    -0.18487    
  -5.00  55.00    -0.26044    
  -5.00  56.00    -0.32973    
  -5.00  57.00    -0.38765    
  -5.00  58.00    -0.43015    
  -5.00  59.00    -0.45473    
  -5.00  60.00    -0.46139    
  -5.00  61.00    -0.45172    
  -5.00  62.00    -0.42966    
  -5.00  63.00    -0.40036    
  -5.00  64.00    -0.37017    
  -5.00  65.00    -0.34503    
  -5.00  66.00    -0.32991    
  -5.00  67.00    -0.32783    
  -5.00  68.00    -0.33995    
  -5.00  69.00    -0.36521    
  -5.00  70.00    -0.40092    
  -5.00  71.00    -0.44311    
  -5.00  72.00    -0.48743    
  -5.00  73.00    -0.52770    
  -5.00  74.00    -0.55791    
  -5.00  75.00    -0.57219    
  -5.00  76.00    -0.56631    
  -5.00  77.00    -0.53654    
  -5.00  78.00    -0.48488    
  -5.00  79.00    -0.41841    
  -5.00  80.00    -0.34880    
  -5.00  81.00    -0.29155    
  -5.00  82.00    -0.26402    
  -5.00  83.00    -0.27834    
  -5.00  84.00    -0.34155    
  -5.00  85.00    -0.44881    
  -5.00  86.00    -0.58467    
  -5.00  87.00    -0.72431    
  -5.00  88.00    -0.83740    
  -5.00  89.00    -0.89768    
  -4.00 -89.00     0.25177    
  -4.00 -88.00     0.22312    
  -4.00 -87.00     0.15050    
  -4.00 -86.00     0.62243E-01
  -4.00 -85.00    -0.10266E-01
  -4.00 -84.00    -0.38474E-01
  -4.00 -83.00    -0.70661E-02
  -4.00 -82.00     0.76816E-01
  -4.00 -81.00     0.18976    
  -4.00 -80.00     0.29362    
  -4.00 -79.00     0.35070    
  -4.00 -78.00     0.33075    
  -4.00 -77.00     0.22368    
  -4.00 -76.00     0.41519E-01
  -4.00 -75.00    -0.18314    
  -4.00 -74.00    -0.40721    
  -4.00 -73.00    -0.58781    
  -4.00 -72.00    -0.69427    
  -4.00 -71.00    -0.71312    
  -4.00 -70.00    -0.65343    
  -4.00 -69.00    -0.53955    
  -4.00 -68.00    -0.40403    
  -4.00 -67.00    -0.27783    
  -4.00 -66.00    -0.18273    
  -4.00 -65.00    -0.12736    
  -4.00 -64.00    -0.10691    
  -4.00 -63.00    -0.10969    
  -4.00 -62.00    -0.12131    
  -4.00 -61.00    -0.13151    
  -4.00 -60.00    -0.13580    
  -4.00 -59.00    -0.13638    
  -4.00 -58.00    -0.13870    
  -4.00 -57.00    -0.14742    
  -4.00 -56.00    -0.16318    
  -4.00 -55.00    -0.18205    
  -4.00 -54.00    -0.19682    
  -4.00 -53.00    -0.20047    
  -4.00 -52.00    -0.19038    
  -4.00 -51.00    -0.17023    
  -4.00 -50.00    -0.14965    
  -4.00 -49.00    -0.14137    
  -4.00 -48.00    -0.15602    
  -4.00 -47.00    -0.19753    
  -4.00 -46.00    -0.26064    
  -4.00 -45.00    -0.33121    
  -4.00 -44.00    -0.39068    
  -4.00 -43.00    -0.42229    
  -4.00 -42.00    -0.41730    
  -4.00 -41.00    -0.37898    
  -4.00 -40.00    -0.32263    
  -4.00 -39.00    -0.27121    
  -4.00 -38.00    -0.24805    
  -4.00 -37.00    -0.26881    
  -4.00 -36.00    -0.33565    
  -4.00 -35.00    -0.43556    
  -4.00 -34.00    -0.54383    
  -4.00 -33.00    -0.63150    
  -4.00 -32.00    -0.67460    
  -4.00 -31.00    -0.66195    
  -4.00 -30.00    -0.59898    
  -4.00 -29.00    -0.50602    
  -4.00 -28.00    -0.41175    
  -4.00 -27.00    -0.34367    
  -4.00 -26.00    -0.31898    
  -4.00 -25.00    -0.33879    
  -4.00 -24.00    -0.38782    
  -4.00 -23.00    -0.43961    
  -4.00 -22.00    -0.46566    
  -4.00 -21.00    -0.44543    
  -4.00 -20.00    -0.37384    
  -4.00 -19.00    -0.26375    
  -4.00 -18.00    -0.14249    
  -4.00 -17.00    -0.43537E-01
  -4.00 -16.00     0.39671E-02
  -4.00 -15.00    -0.15562E-01
  -4.00 -14.00    -0.99117E-01
  -4.00 -13.00    -0.22590    
  -4.00 -12.00    -0.36360    
  -4.00 -11.00    -0.47809    
  -4.00 -10.00    -0.54335    
  -4.00  -9.00    -0.54854    
  -4.00  -8.00    -0.50002    
  -4.00  -7.00    -0.41807    
  -4.00  -6.00    -0.32943    
  -4.00  -5.00    -0.25854    
  -4.00  -4.00    -0.22015    
  -4.00  -3.00    -0.21590    
  -4.00  -2.00    -0.23545    
  -4.00  -1.00    -0.26168    
  -4.00   0.00    -0.27770    
  -4.00   1.00    -0.27327    
  -4.00   2.00    -0.24822    
  -4.00   3.00    -0.21196    
  -4.00   4.00    -0.17937    
  -4.00   5.00    -0.16480    
  -4.00   6.00    -0.17631    
  -4.00   7.00    -0.21250    
  -4.00   8.00    -0.26282    
  -4.00   9.00    -0.31134    
  -4.00  10.00    -0.34253    
  -4.00  11.00    -0.34694    
  -4.00  12.00    -0.32462    
  -4.00  13.00    -0.28528    
  -4.00  14.00    -0.24482    
  -4.00  15.00    -0.21971    
  -4.00  16.00    -0.22110    
  -4.00  17.00    -0.25073    
  -4.00  18.00    -0.30009    
  -4.00  19.00    -0.35311    
  -4.00  20.00    -0.39144    
  -4.00  21.00    -0.40055    
  -4.00  22.00    -0.37447    
  -4.00  23.00    -0.31765    
  -4.00  24.00    -0.24339    
  -4.00  25.00    -0.16923    
  -4.00  26.00    -0.11117    
  -4.00  27.00    -0.78385E-01
  -4.00  28.00    -0.70435E-01
  -4.00  29.00    -0.77653E-01
  -4.00  30.00    -0.84651E-01
  -4.00  31.00    -0.75654E-01
  -4.00  32.00    -0.39894E-01
  -4.00  33.00     0.24684E-01
  -4.00  34.00     0.11056    
  -4.00  35.00     0.20281    
  -4.00  36.00     0.28351    
  -4.00  37.00     0.33699    
  -4.00  38.00     0.35412    
  -4.00  39.00     0.33464    
  -4.00  40.00     0.28671    
  -4.00  41.00     0.22409    
  -4.00  42.00     0.16210    
  -4.00  43.00     0.11328    
  -4.00  44.00     0.84523E-01
  -4.00  45.00     0.75865E-01
  -4.00  46.00     0.81229E-01
  -4.00  47.00     0.91151E-01
  -4.00  48.00     0.95478E-01
  -4.00  49.00     0.85994E-01
  -4.00  50.00     0.58535E-01
  -4.00  51.00     0.13242E-01
  -4.00  52.00    -0.46065E-01
  -4.00  53.00    -0.11291    
  -4.00  54.00    -0.18003    
  -4.00  55.00    -0.24071    
  -4.00  56.00    -0.28953    
  -4.00  57.00    -0.32328    
  -4.00  58.00    -0.34072    
  -4.00  59.00    -0.34258    
  -4.00  60.00    -0.33212    
  -4.00  61.00    -0.31349    
  -4.00  62.00    -0.29216    
  -4.00  63.00    -0.27336    
  -4.00  64.00    -0.26206    
  -4.00  65.00    -0.26154    
  -4.00  66.00    -0.27336    
  -4.00  67.00    -0.29691    
  -4.00  68.00    -0.33018    
  -4.00  69.00    -0.37003    
  -4.00  70.00    -0.41296    
  -4.00  71.00    -0.45565    
  -4.00  72.00    -0.49553    
  -4.00  73.00    -0.52886    
  -4.00  74.00    -0.55223    
  -4.00  75.00    -0.56183    
  -4.00  76.00    -0.55456    
  -4.00  77.00    -0.52692    
  -4.00  78.00    -0.48005    
  -4.00  79.00    -0.41959    
  -4.00  80.00    -0.35554    
  -4.00  81.00    -0.30218    
  -4.00  82.00    -0.27606    
  -4.00  83.00    -0.28947    
  -4.00  84.00    -0.34999    
  -4.00  85.00    -0.45396    
  -4.00  86.00    -0.58686    
  -4.00  87.00    -0.72451    
  -4.00  88.00    -0.83691    
  -4.00  89.00    -0.89732    
  -3.00 -89.00     0.25277    
  -3.00 -88.00     0.22502    
  -3.00 -87.00     0.15352    
  -3.00 -86.00     0.67079E-01
  -3.00 -85.00    -0.31168E-02
  -3.00 -84.00    -0.28724E-01
  -3.00 -83.00     0.49585E-02
  -3.00 -82.00     0.90489E-01
  -3.00 -81.00     0.20352    
  -3.00 -80.00     0.30581    
  -3.00 -79.00     0.35919    
  -3.00 -78.00     0.33390    
  -3.00 -77.00     0.22010    
  -3.00 -76.00     0.30604E-01
  -3.00 -75.00    -0.20130    
  -3.00 -74.00    -0.43193    
  -3.00 -73.00    -0.61778    
  -3.00 -72.00    -0.72795    
  -3.00 -71.00    -0.74880    
  -3.00 -70.00    -0.68966    
  -3.00 -69.00    -0.57538    
  -3.00 -68.00    -0.43890    
  -3.00 -67.00    -0.31180    
  -3.00 -66.00    -0.21631    
  -3.00 -65.00    -0.16131    
  -3.00 -64.00    -0.14223    
  -3.00 -63.00    -0.14701    
  -3.00 -62.00    -0.16087    
  -3.00 -61.00    -0.17276    
  -3.00 -60.00    -0.17740    
  -3.00 -59.00    -0.17613    
  -3.00 -58.00    -0.17365    
  -3.00 -57.00    -0.17426    
  -3.00 -56.00    -0.17868    
  -3.00 -55.00    -0.18352    
  -3.00 -54.00    -0.18279    
  -3.00 -53.00    -0.17103    
  -3.00 -52.00    -0.14747    
  -3.00 -51.00    -0.11761    
  -3.00 -50.00    -0.92592E-01
  -3.00 -49.00    -0.85986E-01
  -3.00 -48.00    -0.10858    
  -3.00 -47.00    -0.16359    
  -3.00 -46.00    -0.24421    
  -3.00 -45.00    -0.33433    
  -3.00 -44.00    -0.41303    
  -3.00 -43.00    -0.46133    
  -3.00 -42.00    -0.46859    
  -3.00 -41.00    -0.43673    
  -3.00 -40.00    -0.38028    
  -3.00 -39.00    -0.32218    
  -3.00 -38.00    -0.28632    
  -3.00 -37.00    -0.28953    
  -3.00 -36.00    -0.33569    
  -3.00 -35.00    -0.41395    
  -3.00 -34.00    -0.50216    
  -3.00 -33.00    -0.57416    
  -3.00 -32.00    -0.60871    
  -3.00 -31.00    -0.59696    
  -3.00 -30.00    -0.54581    
  -3.00 -29.00    -0.47580    
  -3.00 -28.00    -0.41421    
  -3.00 -27.00    -0.38553    
  -3.00 -26.00    -0.40255    
  -3.00 -25.00    -0.46118    
  -3.00 -24.00    -0.54093    
  -3.00 -23.00    -0.61104    
  -3.00 -22.00    -0.64045    
  -3.00 -21.00    -0.60831    
  -3.00 -20.00    -0.51153    
  -3.00 -19.00    -0.36691    
  -3.00 -18.00    -0.20686    
  -3.00 -17.00    -0.70076E-01
  -3.00 -16.00     0.99239E-02
  -3.00 -15.00     0.14785E-01
  -3.00 -14.00    -0.53334E-01
  -3.00 -13.00    -0.17270    
  -3.00 -12.00    -0.30885    
  -3.00 -11.00    -0.42509    
  -3.00 -10.00    -0.49325    
  -3.00  -9.00    -0.50134    
  -3.00  -8.00    -0.45588    
  -3.00  -7.00    -0.37841    
  -3.00  -6.00    -0.29753    
  -3.00  -5.00    -0.23940    
  -3.00  -4.00    -0.21975    
  -3.00  -3.00    -0.23990    
  -3.00  -2.00    -0.28778    
  -3.00  -1.00    -0.34336    
  -3.00   0.00    -0.38618    
  -3.00   1.00    -0.40248    
  -3.00   2.00    -0.38929    
  -3.00   3.00    -0.35444    
  -3.00   4.00    -0.31276    
  -3.00   5.00    -0.27997    
  -3.00   6.00    -0.26673    
  -3.00   7.00    -0.27496    
  -3.00   8.00    -0.29772    
  -3.00   9.00    -0.32257    
  -3.00  10.00    -0.33691    
  -3.00  11.00    -0.33343    
  -3.00  12.00    -0.31336    
  -3.00  13.00    -0.28646    
  -3.00  14.00    -0.26746    
  -3.00  15.00    -0.27054    
  -3.00  16.00    -0.30345    
  -3.00  17.00    -0.36376    
  -3.00  18.00    -0.43845    
  -3.00  19.00    -0.50717    
  -3.00  20.00    -0.54817    
  -3.00  21.00    -0.54499    
  -3.00  22.00    -0.49159    
  -3.00  23.00    -0.39441    
  -3.00  24.00    -0.27048    
  -3.00  25.00    -0.14241    
  -3.00  26.00    -0.31762E-01
  -3.00  27.00     0.47037E-01
  -3.00  28.00     0.90293E-01
  -3.00  29.00     0.10517    
  -3.00  30.00     0.10642    
  -3.00  31.00     0.11097    
  -3.00  32.00     0.13206    
  -3.00  33.00     0.17506    
  -3.00  34.00     0.23591    
  -3.00  35.00     0.30277    
  -3.00  36.00     0.36013    
  -3.00  37.00     0.39379    
  -3.00  38.00     0.39531    
  -3.00  39.00     0.36438    
  -3.00  40.00     0.30866    
  -3.00  41.00     0.24117    
  -3.00  42.00     0.17636    
  -3.00  43.00     0.12590    
  -3.00  44.00     0.95873E-01
  -3.00  45.00     0.85566E-01
  -3.00  46.00     0.88373E-01
  -3.00  47.00     0.94489E-01
  -3.00  48.00     0.93719E-01
  -3.00  49.00     0.78346E-01
  -3.00  50.00     0.45085E-01
  -3.00  51.00    -0.45861E-02
  -3.00  52.00    -0.65294E-01
  -3.00  53.00    -0.12908    
  -3.00  54.00    -0.18764    
  -3.00  55.00    -0.23388    
  -3.00  56.00    -0.26304    
  -3.00  57.00    -0.27353    
  -3.00  58.00    -0.26669    
  -3.00  59.00    -0.24627    
  -3.00  60.00    -0.21869    
  -3.00  61.00    -0.19070    
  -3.00  62.00    -0.16928    
  -3.00  63.00    -0.15986    
  -3.00  64.00    -0.16618    
  -3.00  65.00    -0.18888    
  -3.00  66.00    -0.22621    
  -3.00  67.00    -0.27394    
  -3.00  68.00    -0.32693    
  -3.00  69.00    -0.37994    
  -3.00  70.00    -0.42874    
  -3.00  71.00    -0.47072    
  -3.00  72.00    -0.50506    
  -3.00  73.00    -0.53059    
  -3.00  74.00    -0.54647    
  -3.00  75.00    -0.55099    
  -3.00  76.00    -0.54211    
  -3.00  77.00    -0.51657    
  -3.00  78.00    -0.47460    
  -3.00  79.00    -0.42032    
  -3.00  80.00    -0.36203    
  -3.00  81.00    -0.31272    
  -3.00  82.00    -0.28815    
  -3.00  83.00    -0.30073    
  -3.00  84.00    -0.35859    
  -3.00  85.00    -0.45927    
  -3.00  86.00    -0.58915    
  -3.00  87.00    -0.72478    
  -3.00  88.00    -0.83644    
  -3.00  89.00    -0.89696    
  -2.00 -89.00     0.25375    
  -2.00 -88.00     0.22686    
  -2.00 -87.00     0.15647    
  -2.00 -86.00     0.71784E-01
  -2.00 -85.00     0.38059E-02
  -2.00 -84.00    -0.19375E-01
  -2.00 -83.00     0.16227E-01
  -2.00 -82.00     0.10298    
  -2.00 -81.00     0.21556    
  -2.00 -80.00     0.31574    
  -2.00 -79.00     0.36496    
  -2.00 -78.00     0.33415    
  -2.00 -77.00     0.21386    
  -2.00 -76.00     0.17781E-01
  -2.00 -75.00    -0.22011    
  -2.00 -74.00    -0.45560    
  -2.00 -73.00    -0.64481    
  -2.00 -72.00    -0.75682    
  -2.00 -71.00    -0.77832    
  -2.00 -70.00    -0.71902    
  -2.00 -69.00    -0.60447    
  -2.00 -68.00    -0.46810    
  -2.00 -67.00    -0.34186    
  -2.00 -66.00    -0.24812    
  -2.00 -65.00    -0.19547    
  -2.00 -64.00    -0.17923    
  -2.00 -63.00    -0.18642    
  -2.00 -62.00    -0.20174    
  -2.00 -61.00    -0.21342    
  -2.00 -60.00    -0.21586    
  -2.00 -59.00    -0.21024    
  -2.00 -58.00    -0.20132    
  -2.00 -57.00    -0.19387    
  -2.00 -56.00    -0.18923    
  -2.00 -55.00    -0.18471    
  -2.00 -54.00    -0.17513    
  -2.00 -53.00    -0.15576    
  -2.00 -52.00    -0.12640    
  -2.00 -51.00    -0.93011E-01
  -2.00 -50.00    -0.66955E-01
  -2.00 -49.00    -0.61797E-01
  -2.00 -48.00    -0.88182E-01
  -2.00 -47.00    -0.14900    
  -2.00 -46.00    -0.23676    
  -2.00 -45.00    -0.33465    
  -2.00 -44.00    -0.42073    
  -2.00 -43.00    -0.47495    
  -2.00 -42.00    -0.48547    
  -2.00 -41.00    -0.45310    
  -2.00 -40.00    -0.39146    
  -2.00 -39.00    -0.32302    
  -2.00 -38.00    -0.27181    
  -2.00 -37.00    -0.25560    
  -2.00 -36.00    -0.28002    
  -2.00 -35.00    -0.33679    
  -2.00 -34.00    -0.40684    
  -2.00 -33.00    -0.46722    
  -2.00 -32.00    -0.49956    
  -2.00 -31.00    -0.49690    
  -2.00 -30.00    -0.46664    
  -2.00 -29.00    -0.42806    
  -2.00 -28.00    -0.40542    
  -2.00 -27.00    -0.41872    
  -2.00 -26.00    -0.47541    
  -2.00 -25.00    -0.56604    
  -2.00 -24.00    -0.66564    
  -2.00 -23.00    -0.74067    
  -2.00 -22.00    -0.75950    
  -2.00 -21.00    -0.70299    
  -2.00 -20.00    -0.57183    
  -2.00 -19.00    -0.38785    
  -2.00 -18.00    -0.18882    
  -2.00 -17.00    -0.18235E-01
  -2.00 -16.00     0.87038E-01
  -2.00 -15.00     0.10713    
  -2.00 -14.00     0.44542E-01
  -2.00 -13.00    -0.77154E-01
  -2.00 -12.00    -0.22086    
  -2.00 -11.00    -0.34721    
  -2.00 -10.00    -0.42598    
  -2.00  -9.00    -0.44416    
  -2.00  -8.00    -0.40836    
  -2.00  -7.00    -0.34101    
  -2.00  -6.00    -0.27200    
  -2.00  -5.00    -0.22853    
  -2.00  -4.00    -0.22669    
  -2.00  -3.00    -0.26723    
  -2.00  -2.00    -0.33659    
  -2.00  -1.00    -0.41259    
  -2.00   0.00    -0.47246    
  -2.00   1.00    -0.50031    
  -2.00   2.00    -0.49174    
  -2.00   3.00    -0.45404    
  -2.00   4.00    -0.40236    
  -2.00   5.00    -0.35361    
  -2.00   6.00    -0.32020    
  -2.00   7.00    -0.30620    
  -2.00   8.00    -0.30700    
  -2.00   9.00    -0.31248    
  -2.00  10.00    -0.31229    
  -2.00  11.00    -0.30109    
  -2.00  12.00    -0.28168    
  -2.00  13.00    -0.26461    
  -2.00  14.00    -0.26448    
  -2.00  15.00    -0.29405    
  -2.00  16.00    -0.35835    
  -2.00  17.00    -0.45105    
  -2.00  18.00    -0.55445    
  -2.00  19.00    -0.64340    
  -2.00  20.00    -0.69206    
  -2.00  21.00    -0.68132    
  -2.00  22.00    -0.60457    
  -2.00  23.00    -0.47000    
  -2.00  24.00    -0.29856    
  -2.00  25.00    -0.11833    
  -2.00  26.00     0.42994E-01
  -2.00  27.00     0.16516    
  -2.00  28.00     0.23995    
  -2.00  29.00     0.27193    
  -2.00  30.00     0.27549    
  -2.00  31.00     0.26923    
  -2.00  32.00     0.26965    
  -2.00  33.00     0.28614    
  -2.00  34.00     0.31870    
  -2.00  35.00     0.35891    
  -2.00  36.00     0.39359    
  -2.00  37.00     0.40966    
  -2.00  38.00     0.39872    
  -2.00  39.00     0.35972    
  -2.00  40.00     0.29919    
  -2.00  41.00     0.22897    
  -2.00  42.00     0.16250    
  -2.00  43.00     0.11077    
  -2.00  44.00     0.79389E-01
  -2.00  45.00     0.67378E-01
  -2.00  46.00     0.68056E-01
  -2.00  47.00     0.71530E-01
  -2.00  48.00     0.67619E-01
  -2.00  49.00     0.48936E-01
  -2.00  50.00     0.12696E-01
  -2.00  51.00    -0.38737E-01
  -2.00  52.00    -0.98842E-01
  -2.00  53.00    -0.15849    
  -2.00  54.00    -0.20843    
  -2.00  55.00    -0.24106    
  -2.00  56.00    -0.25206    
  -2.00  57.00    -0.24104    
  -2.00  58.00    -0.21154    
  -2.00  59.00    -0.17007    
  -2.00  60.00    -0.12594    
  -2.00  61.00    -0.88383E-01
  -2.00  62.00    -0.65992E-01
  -2.00  63.00    -0.64513E-01
  -2.00  64.00    -0.86560E-01
  -2.00  65.00    -0.13036    
  -2.00  66.00    -0.19098    
  -2.00  67.00    -0.26069    
  -2.00  68.00    -0.33131    
  -2.00  69.00    -0.39558    
  -2.00  70.00    -0.44852    
  -2.00  71.00    -0.48837    
  -2.00  72.00    -0.51596    
  -2.00  73.00    -0.53278    
  -2.00  74.00    -0.54055    
  -2.00  75.00    -0.53964    
  -2.00  76.00    -0.52895    
  -2.00  77.00    -0.50550    
  -2.00  78.00    -0.46854    
  -2.00  79.00    -0.42060    
  -2.00  80.00    -0.36824    
  -2.00  81.00    -0.32315    
  -2.00  82.00    -0.30026    
  -2.00  83.00    -0.31209    
  -2.00  84.00    -0.36734    
  -2.00  85.00    -0.46472    
  -2.00  86.00    -0.59155    
  -2.00  87.00    -0.72511    
  -2.00  88.00    -0.83599    
  -2.00  89.00    -0.89660    
  -1.00 -89.00     0.25471    
  -1.00 -88.00     0.22867    
  -1.00 -87.00     0.15935    
  -1.00 -86.00     0.76352E-01
  -1.00 -85.00     0.10490E-01
  -1.00 -84.00    -0.10448E-01
  -1.00 -83.00     0.26725E-01
  -1.00 -82.00     0.11424    
  -1.00 -81.00     0.22583    
  -1.00 -80.00     0.32336    
  -1.00 -79.00     0.36797    
  -1.00 -78.00     0.33148    
  -1.00 -77.00     0.20497    
  -1.00 -76.00     0.30971E-02
  -1.00 -75.00    -0.23944    
  -1.00 -74.00    -0.47805    
  -1.00 -73.00    -0.66865    
  -1.00 -72.00    -0.78050    
  -1.00 -71.00    -0.80113    
  -1.00 -70.00    -0.74078    
  -1.00 -69.00    -0.62590    
  -1.00 -68.00    -0.49042    
  -1.00 -67.00    -0.36656    
  -1.00 -66.00    -0.27644    
  -1.00 -65.00    -0.22798    
  -1.00 -64.00    -0.21585    
  -1.00 -63.00    -0.22585    
  -1.00 -62.00    -0.24195    
  -1.00 -61.00    -0.25182    
  -1.00 -60.00    -0.24992    
  -1.00 -59.00    -0.23798    
  -1.00 -58.00    -0.22163    
  -1.00 -57.00    -0.20684    
  -1.00 -56.00    -0.19613    
  -1.00 -55.00    -0.18756    
  -1.00 -54.00    -0.17633    
  -1.00 -53.00    -0.15751    
  -1.00 -52.00    -0.13022    
  -1.00 -51.00    -0.99401E-01
  -1.00 -50.00    -0.75397E-01
  -1.00 -49.00    -0.70875E-01
  -1.00 -48.00    -0.96051E-01
  -1.00 -47.00    -0.15387    
  -1.00 -46.00    -0.23715    
  -1.00 -45.00    -0.32973    
  -1.00 -44.00    -0.41017    
  -1.00 -43.00    -0.45861    
  -1.00 -42.00    -0.46294    
  -1.00 -41.00    -0.42332    
  -1.00 -40.00    -0.35240    
  -1.00 -39.00    -0.27179    
  -1.00 -38.00    -0.20515    
  -1.00 -37.00    -0.17073    
  -1.00 -36.00    -0.17564    
  -1.00 -35.00    -0.21406    
  -1.00 -34.00    -0.27002    
  -1.00 -33.00    -0.32380    
  -1.00 -32.00    -0.35960    
  -1.00 -31.00    -0.37179    
  -1.00 -30.00    -0.36732    
  -1.00 -29.00    -0.36308    
  -1.00 -28.00    -0.37923    
  -1.00 -27.00    -0.43054    
  -1.00 -26.00    -0.51899    
  -1.00 -25.00    -0.63037    
  -1.00 -24.00    -0.73658    
  -1.00 -23.00    -0.80317    
  -1.00 -22.00    -0.79994    
  -1.00 -21.00    -0.71133    
  -1.00 -20.00    -0.54297    
  -1.00 -19.00    -0.32209    
  -1.00 -18.00    -0.91357E-01
  -1.00 -17.00     0.10223    
  -1.00 -16.00     0.22009    
  -1.00 -15.00     0.24256    
  -1.00 -14.00     0.17389    
  -1.00 -13.00     0.40332E-01
  -1.00 -12.00    -0.11817    
  -1.00 -11.00    -0.25984    
  -1.00 -10.00    -0.35301    
  -1.00  -9.00    -0.38423    
  -1.00  -8.00    -0.36055    
  -1.00  -7.00    -0.30527    
  -1.00  -6.00    -0.24911    
  -1.00  -5.00    -0.21967    
  -1.00  -4.00    -0.23278    
  -1.00  -3.00    -0.28823    
  -1.00  -2.00    -0.37111    
  -1.00  -1.00    -0.45780    
  -1.00   0.00    -0.52435    
  -1.00   1.00    -0.55428    
  -1.00   2.00    -0.54321    
  -1.00   3.00    -0.49898    
  -1.00   4.00    -0.43771    
  -1.00   5.00    -0.37725    
  -1.00   6.00    -0.33095    
  -1.00   7.00    -0.30360    
  -1.00   8.00    -0.29123    
  -1.00   9.00    -0.28445    
  -1.00  10.00    -0.27389    
  -1.00  11.00    -0.25555    
  -1.00  12.00    -0.23375    
  -1.00  13.00    -0.22053    
  -1.00  14.00    -0.23146    
  -1.00  15.00    -0.27930    
  -1.00  16.00    -0.36777    
  -1.00  17.00    -0.48777    
  -1.00  18.00    -0.61772    
  -1.00  19.00    -0.72798    
  -1.00  20.00    -0.78846    
  -1.00  21.00    -0.77696    
  -1.00  22.00    -0.68562    
  -1.00  23.00    -0.52365    
  -1.00  24.00    -0.31525    
  -1.00  25.00    -0.93445E-01
  -1.00  26.00     0.10826    
  -1.00  27.00     0.26405    
  -1.00  28.00     0.36135    
  -1.00  29.00     0.40232    
  -1.00  30.00     0.40121    
  -1.00  31.00     0.37857    
  -1.00  32.00     0.35445    
  -1.00  33.00     0.34247    
  -1.00  34.00     0.34679    
  -1.00  35.00     0.36225    
  -1.00  36.00     0.37763    
  -1.00  37.00     0.38042    
  -1.00  38.00     0.36157    
  -1.00  39.00     0.31866    
  -1.00  40.00     0.25655    
  -1.00  41.00     0.18566    
  -1.00  42.00     0.11843    
  -1.00  43.00     0.65478E-01
  -1.00  44.00     0.32459E-01
  -1.00  45.00     0.18679E-01
  -1.00  46.00     0.17863E-01
  -1.00  47.00     0.20299E-01
  -1.00  48.00     0.15843E-01
  -1.00  49.00    -0.28215E-02
  -1.00  50.00    -0.38452E-01
  -1.00  51.00    -0.88364E-01
  -1.00  52.00    -0.14541    
  -1.00  53.00    -0.19968    
  -1.00  54.00    -0.24107    
  -1.00  55.00    -0.26142    
  -1.00  56.00    -0.25647    
  -1.00  57.00    -0.22657    
  -1.00  58.00    -0.17699    
  -1.00  59.00    -0.11650    
  -1.00  60.00    -0.56999E-01
  -1.00  61.00    -0.10082E-01
  -1.00  62.00     0.14092E-01
  -1.00  63.00     0.93005E-02
  -1.00  64.00    -0.26170E-01
  -1.00  65.00    -0.88388E-01
  -1.00  66.00    -0.16945    
  -1.00  67.00    -0.25836    
  -1.00  68.00    -0.34401    
  -1.00  69.00    -0.41724    
  -1.00  70.00    -0.47237    
  -1.00  71.00    -0.50852    
  -1.00  72.00    -0.52812    
  -1.00  73.00    -0.53534    
  -1.00  74.00    -0.53440    
  -1.00  75.00    -0.52774    
  -1.00  76.00    -0.51507    
  -1.00  77.00    -0.49372    
  -1.00  78.00    -0.46186    
  -1.00  79.00    -0.42041    
  -1.00  80.00    -0.37415    
  -1.00  81.00    -0.33344    
  -1.00  82.00    -0.31236    
  -1.00  83.00    -0.32353    
  -1.00  84.00    -0.37620    
  -1.00  85.00    -0.47030    
  -1.00  86.00    -0.59405    
  -1.00  87.00    -0.72550    
  -1.00  88.00    -0.83555    
  -1.00  89.00    -0.89623    
   0.00 -89.00     0.25565    
   0.00 -88.00     0.23042    
   0.00 -87.00     0.16216    
   0.00 -86.00     0.80775E-01
   0.00 -85.00     0.16924E-01
   0.00 -84.00    -0.19577E-02
   0.00 -83.00     0.36442E-01
   0.00 -82.00     0.12427    
   0.00 -81.00     0.23434    
   0.00 -80.00     0.32864    
   0.00 -79.00     0.36821    
   0.00 -78.00     0.32590    
   0.00 -77.00     0.19346    
   0.00 -76.00    -0.13389E-01
   0.00 -75.00    -0.25923    
   0.00 -74.00    -0.49915    
   0.00 -73.00    -0.68909    
   0.00 -72.00    -0.79874    
   0.00 -71.00    -0.81684    
   0.00 -70.00    -0.75437    
   0.00 -69.00    -0.63887    
   0.00 -68.00    -0.50483    
   0.00 -67.00    -0.38457    
   0.00 -66.00    -0.29970    
   0.00 -65.00    -0.25704    
   0.00 -64.00    -0.25015    
   0.00 -63.00    -0.26334    
   0.00 -62.00    -0.27970    
   0.00 -61.00    -0.28641    
   0.00 -60.00    -0.27847    
   0.00 -59.00    -0.25875    
   0.00 -58.00    -0.23452    
   0.00 -57.00    -0.21364    
   0.00 -56.00    -0.20023    
   0.00 -55.00    -0.19314    
   0.00 -54.00    -0.18751    
   0.00 -53.00    -0.17732    
   0.00 -52.00    -0.15970    
   0.00 -51.00    -0.13720    
   0.00 -50.00    -0.11794    
   0.00 -49.00    -0.11285    
   0.00 -48.00    -0.13149    
   0.00 -47.00    -0.17725    
   0.00 -46.00    -0.24430    
   0.00 -45.00    -0.31851    
   0.00 -44.00    -0.38051    
   0.00 -43.00    -0.41203    
   0.00 -42.00    -0.40171    
   0.00 -41.00    -0.34954    
   0.00 -40.00    -0.26722    
   0.00 -39.00    -0.17512    
   0.00 -38.00    -0.95893E-01
   0.00 -37.00    -0.47566E-01
   0.00 -36.00    -0.38131E-01
   0.00 -35.00    -0.63761E-01
   0.00 -34.00    -0.11121    
   0.00 -33.00    -0.16355    
   0.00 -32.00    -0.20710    
   0.00 -31.00    -0.23694    
   0.00 -30.00    -0.25880    
   0.00 -29.00    -0.28651    
   0.00 -28.00    -0.33563    
   0.00 -27.00    -0.41571    
   0.00 -26.00    -0.52379    
   0.00 -25.00    -0.64216    
   0.00 -24.00    -0.74134    
   0.00 -23.00    -0.78793    
   0.00 -22.00    -0.75508    
   0.00 -21.00    -0.63215    
   0.00 -20.00    -0.43027    
   0.00 -19.00    -0.18171    
   0.00 -18.00     0.67257E-01
   0.00 -17.00     0.26800    
   0.00 -16.00     0.38239    
   0.00 -15.00     0.39294    
   0.00 -14.00     0.30708    
   0.00 -13.00     0.15441    
   0.00 -12.00    -0.22357E-01
   0.00 -11.00    -0.17982    
   0.00 -10.00    -0.28591    
   0.00  -9.00    -0.32785    
   0.00  -8.00    -0.31388    
   0.00  -7.00    -0.26848    
   0.00  -6.00    -0.22303    
   0.00  -5.00    -0.20498    
   0.00  -4.00    -0.22922    
   0.00  -3.00    -0.29412    
   0.00  -2.00    -0.38332    
   0.00  -1.00    -0.47219    
   0.00   0.00    -0.53657    
   0.00   1.00    -0.56064    
   0.00   2.00    -0.54137    
   0.00   3.00    -0.48831    
   0.00   4.00    -0.41907    
   0.00   5.00    -0.35245    
   0.00   6.00    -0.30190    
   0.00   7.00    -0.27156    
   0.00   8.00    -0.25636    
   0.00   9.00    -0.24582    
   0.00  10.00    -0.23000    
   0.00  11.00    -0.20516    
   0.00  12.00    -0.17685    
   0.00  13.00    -0.15903    
   0.00  14.00    -0.16934    
   0.00  15.00    -0.22214    
   0.00  16.00    -0.32168    
   0.00  17.00    -0.45798    
   0.00  18.00    -0.60706    
   0.00  19.00    -0.73585    
   0.00  20.00    -0.81049    
   0.00  21.00    -0.80548    
   0.00  22.00    -0.71106    
   0.00  23.00    -0.53638    
   0.00  24.00    -0.30763    
   0.00  25.00    -0.61477E-01
   0.00  26.00     0.16396    
   0.00  27.00     0.33825    
   0.00  28.00     0.44518    
   0.00  29.00     0.48495    
   0.00  30.00     0.47190    
   0.00  31.00     0.42856    
   0.00  32.00     0.37836    
   0.00  33.00     0.33891    
   0.00  34.00     0.31807    
   0.00  35.00     0.31342    
   0.00  36.00     0.31504    
   0.00  37.00     0.31028    
   0.00  38.00     0.28878    
   0.00  39.00     0.24616    
   0.00  40.00     0.18531    
   0.00  41.00     0.11512    
   0.00  42.00     0.47238E-01
   0.00  43.00    -0.76215E-02
   0.00  44.00    -0.43149E-01
   0.00  45.00    -0.59104E-01
   0.00  46.00    -0.60869E-01
   0.00  47.00    -0.57719E-01
   0.00  48.00    -0.59767E-01
   0.00  49.00    -0.74621E-01
   0.00  50.00    -0.10556    
   0.00  51.00    -0.15025    
   0.00  52.00    -0.20152    
   0.00  53.00    -0.24915    
   0.00  54.00    -0.28234    
   0.00  55.00    -0.29227    
   0.00  56.00    -0.27432    
   0.00  57.00    -0.22907    
   0.00  58.00    -0.16288    
   0.00  59.00    -0.86280E-01
   0.00  60.00    -0.13284E-01
   0.00  61.00     0.42350E-01
   0.00  62.00     0.68918E-01
   0.00  63.00     0.59558E-01
   0.00  64.00     0.13208E-01
   0.00  65.00    -0.64377E-01
   0.00  66.00    -0.16261    
   0.00  67.00    -0.26752    
   0.00  68.00    -0.36526    
   0.00  69.00    -0.44491    
   0.00  70.00    -0.50011    
   0.00  71.00    -0.53092    
   0.00  72.00    -0.54132    
   0.00  73.00    -0.53812    
   0.00  74.00    -0.52795    
   0.00  75.00    -0.51526    
   0.00  76.00    -0.50049    
   0.00  77.00    -0.48126    
   0.00  78.00    -0.45460    
   0.00  79.00    -0.41978    
   0.00  80.00    -0.37977    
   0.00  81.00    -0.34357    
   0.00  82.00    -0.32441    
   0.00  83.00    -0.33502    
   0.00  84.00    -0.38517    
   0.00  85.00    -0.47599    
   0.00  86.00    -0.59664    
   0.00  87.00    -0.72595    
   0.00  88.00    -0.83514    
   0.00  89.00    -0.89586    
   1.00 -89.00     0.25656    
   1.00 -88.00     0.23213    
   1.00 -87.00     0.16490    
   1.00 -86.00     0.85049E-01
   1.00 -85.00     0.23098E-01
   1.00 -84.00     0.60798E-02
   1.00 -83.00     0.45376E-01
   1.00 -82.00     0.13306    
   1.00 -81.00     0.24106    
   1.00 -80.00     0.33158    
   1.00 -79.00     0.36572    
   1.00 -78.00     0.31744    
   1.00 -77.00     0.17938    
   1.00 -76.00    -0.31610E-01
   1.00 -75.00    -0.27939    
   1.00 -74.00    -0.51881    
   1.00 -73.00    -0.70604    
   1.00 -72.00    -0.81140    
   1.00 -71.00    -0.82522    
   1.00 -70.00    -0.75944    
   1.00 -69.00    -0.64285    
   1.00 -68.00    -0.51054    
   1.00 -67.00    -0.39484    
   1.00 -66.00    -0.31654    
   1.00 -65.00    -0.28110    
   1.00 -64.00    -0.28041    
   1.00 -63.00    -0.29716    
   1.00 -62.00    -0.31338    
   1.00 -61.00    -0.31590    
   1.00 -60.00    -0.30061    
   1.00 -59.00    -0.27211    
   1.00 -58.00    -0.23998    
   1.00 -57.00    -0.21451    
   1.00 -56.00    -0.20182    
   1.00 -55.00    -0.20159    
   1.00 -54.00    -0.20840    
   1.00 -53.00    -0.21429    
   1.00 -52.00    -0.21328    
   1.00 -51.00    -0.20426    
   1.00 -50.00    -0.19202    
   1.00 -49.00    -0.18504    
   1.00 -48.00    -0.19206    
   1.00 -47.00    -0.21734    
   1.00 -46.00    -0.25745    
   1.00 -45.00    -0.30163    
   1.00 -44.00    -0.33410    
   1.00 -43.00    -0.33951    
   1.00 -42.00    -0.30826    
   1.00 -41.00    -0.24064    
   1.00 -40.00    -0.14741    
   1.00 -39.00    -0.47209E-01
   1.00 -38.00     0.39034E-01
   1.00 -37.00     0.94396E-01
   1.00 -36.00     0.11085    
   1.00 -35.00     0.91006E-01
   1.00 -34.00     0.46036E-01
   1.00 -33.00    -0.93567E-02
   1.00 -32.00    -0.63057E-01
   1.00 -31.00    -0.11031    
   1.00 -30.00    -0.15524    
   1.00 -29.00    -0.20834    
   1.00 -28.00    -0.28069    
   1.00 -27.00    -0.37713    
   1.00 -26.00    -0.49094    
   1.00 -25.00    -0.60245    
   1.00 -24.00    -0.68262    
   1.00 -23.00    -0.70100    
   1.00 -22.00    -0.63554    
   1.00 -21.00    -0.48134    
   1.00 -20.00    -0.25496    
   1.00 -19.00     0.73200E-02
   1.00 -18.00     0.25742    
   1.00 -17.00     0.44737    
   1.00 -16.00     0.54182    
   1.00 -15.00     0.52741    
   1.00 -14.00     0.41604    
   1.00 -13.00     0.24101    
   1.00 -12.00     0.47332E-01
   1.00 -11.00    -0.12112    
   1.00 -10.00    -0.23335    
   1.00  -9.00    -0.27870    
   1.00  -8.00    -0.26773    
   1.00  -7.00    -0.22671    
   1.00  -6.00    -0.18768    
   1.00  -5.00    -0.17753    
   1.00  -4.00    -0.20954    
   1.00  -3.00    -0.28006    
   1.00  -2.00    -0.37093    
   1.00  -1.00    -0.45660    
   1.00   0.00    -0.51321    
   1.00   1.00    -0.52646    
   1.00   2.00    -0.49573    
   1.00   3.00    -0.43314    
   1.00   4.00    -0.35839    
   1.00   5.00    -0.29126    
   1.00   6.00    -0.24475    
   1.00   7.00    -0.22126    
   1.00   8.00    -0.21309    
   1.00   9.00    -0.20701    
   1.00  10.00    -0.19094    
   1.00  11.00    -0.16021    
   1.00  12.00    -0.12101    
   1.00  13.00    -0.89296E-01
   1.00  14.00    -0.85682E-01
   1.00  15.00    -0.12764    
   1.00  16.00    -0.22189    
   1.00  17.00    -0.35964    
   1.00  18.00    -0.51652    
   1.00  19.00    -0.65760    
   1.00  20.00    -0.74616    
   1.00  21.00    -0.75365    
   1.00  22.00    -0.66783    
   1.00  23.00    -0.49667    
   1.00  24.00    -0.26671    
   1.00  25.00    -0.16525E-01
   1.00  26.00     0.21292    
   1.00  27.00     0.38809    
   1.00  28.00     0.49021    
   1.00  29.00     0.51821    
   1.00  30.00     0.48670    
   1.00  31.00     0.42007    
   1.00  32.00     0.34463    
   1.00  33.00     0.28130    
   1.00  34.00     0.24083    
   1.00  35.00     0.22268    
   1.00  36.00     0.21739    
   1.00  37.00     0.21139    
   1.00  38.00     0.19240    
   1.00  39.00     0.15364    
   1.00  40.00     0.95850E-01
   1.00  41.00     0.26498E-01
   1.00  42.00    -0.43129E-01
   1.00  43.00    -0.10167    
   1.00  44.00    -0.14145    
   1.00  45.00    -0.16062    
   1.00  46.00    -0.16317    
   1.00  47.00    -0.15771    
   1.00  48.00    -0.15438    
   1.00  49.00    -0.16151    
   1.00  50.00    -0.18351    
   1.00  51.00    -0.21916    
   1.00  52.00    -0.26194    
   1.00  53.00    -0.30180    
   1.00  54.00    -0.32748    
   1.00  55.00    -0.32935    
   1.00  56.00    -0.30207    
   1.00  57.00    -0.24583    
   1.00  58.00    -0.16736    
   1.00  59.00    -0.78365E-01
   1.00  60.00     0.55563E-02
   1.00  61.00     0.68749E-01
   1.00  62.00     0.98012E-01
   1.00  63.00     0.85675E-01
   1.00  64.00     0.31049E-01
   1.00  65.00    -0.58678E-01
   1.00  66.00    -0.17059    
   1.00  67.00    -0.28807    
   1.00  68.00    -0.39479    
   1.00  69.00    -0.47821    
   1.00  70.00    -0.53138    
   1.00  71.00    -0.55521    
   1.00  72.00    -0.55532    
   1.00  73.00    -0.54095    
   1.00  74.00    -0.52111    
   1.00  75.00    -0.50217    
   1.00  76.00    -0.48527    
   1.00  77.00    -0.46818    
   1.00  78.00    -0.44679    
   1.00  79.00    -0.41872    
   1.00  80.00    -0.38508    
   1.00  81.00    -0.35352    
   1.00  82.00    -0.33639    
   1.00  83.00    -0.34653    
   1.00  84.00    -0.39421    
   1.00  85.00    -0.48178    
   1.00  86.00    -0.59930    
   1.00  87.00    -0.72646    
   1.00  88.00    -0.83474    
   1.00  89.00    -0.89549    
   2.00 -89.00     0.25746    
   2.00 -88.00     0.23379    
   2.00 -87.00     0.16755    
   2.00 -86.00     0.89167E-01
   2.00 -85.00     0.29005E-01
   2.00 -84.00     0.13653E-01
   2.00 -83.00     0.53529E-01
   2.00 -82.00     0.14059    
   2.00 -81.00     0.24602    
   2.00 -80.00     0.33219    
   2.00 -79.00     0.36052    
   2.00 -78.00     0.30615    
   2.00 -77.00     0.16282    
   2.00 -76.00    -0.51488E-01
   2.00 -75.00    -0.29986    
   2.00 -74.00    -0.53699    
   2.00 -73.00    -0.71945    
   2.00 -72.00    -0.81847    
   2.00 -71.00    -0.82620    
   2.00 -70.00    -0.75584    
   2.00 -69.00    -0.63752    
   2.00 -68.00    -0.50703    
   2.00 -67.00    -0.39658    
   2.00 -66.00    -0.32592    
   2.00 -65.00    -0.29886    
   2.00 -64.00    -0.30519    
   2.00 -63.00    -0.32585    
   2.00 -62.00    -0.34169    
   2.00 -61.00    -0.33929    
   2.00 -60.00    -0.31574    
   2.00 -59.00    -0.27783    
   2.00 -58.00    -0.23802    
   2.00 -57.00    -0.20952    
   2.00 -56.00    -0.20073    
   2.00 -55.00    -0.21214    
   2.00 -54.00    -0.23736    
   2.00 -53.00    -0.26578    
   2.00 -52.00    -0.28729    
   2.00 -51.00    -0.29611    
   2.00 -50.00    -0.29274    
   2.00 -49.00    -0.28272    
   2.00 -48.00    -0.27385    
   2.00 -47.00    -0.27175    
   2.00 -46.00    -0.27632    
   2.00 -45.00    -0.28139    
   2.00 -44.00    -0.27615    
   2.00 -43.00    -0.24932    
   2.00 -42.00    -0.19393    
   2.00 -41.00    -0.11092    
   2.00 -40.00    -0.99960E-02
   2.00 -39.00     0.92473E-01
   2.00 -38.00     0.17815    
   2.00 -37.00     0.23216    
   2.00 -36.00     0.24745    
   2.00 -35.00     0.22626    
   2.00 -34.00     0.17843    
   2.00 -33.00     0.11703    
   2.00 -32.00     0.53027E-01
   2.00 -31.00    -0.87207E-02
   2.00 -30.00    -0.70647E-01
   2.00 -29.00    -0.14010    
   2.00 -28.00    -0.22425    
   2.00 -27.00    -0.32419    
   2.00 -26.00    -0.43072    
   2.00 -25.00    -0.52380    
   2.00 -24.00    -0.57654    
   2.00 -23.00    -0.56280    
   2.00 -22.00    -0.46630    
   2.00 -21.00    -0.28805    
   2.00 -20.00    -0.49413E-01
   2.00 -19.00     0.21079    
   2.00 -18.00     0.44469    
   2.00 -17.00     0.60726    
   2.00 -16.00     0.66809    
   2.00 -15.00     0.61959    
   2.00 -14.00     0.47896    
   2.00 -13.00     0.28324    
   2.00 -12.00     0.78866E-01
   2.00 -11.00    -0.91187E-01
   2.00 -10.00    -0.19872    
   2.00  -9.00    -0.23681    
   2.00  -8.00    -0.21959    
   2.00  -7.00    -0.17583    
   2.00  -6.00    -0.13841    
   2.00  -5.00    -0.13332    
   2.00  -4.00    -0.17162    
   2.00  -3.00    -0.24692    
   2.00  -2.00    -0.33868    
   2.00  -1.00    -0.42013    
   2.00   0.00    -0.46774    
   2.00   1.00    -0.46911    
   2.00   2.00    -0.42652    
   2.00   3.00    -0.35528    
   2.00   4.00    -0.27761    
   2.00   5.00    -0.21445    
   2.00   6.00    -0.17817    
   2.00   7.00    -0.16880    
   2.00   8.00    -0.17508    
   2.00   9.00    -0.17979    
   2.00  10.00    -0.16745    
   2.00  11.00    -0.13137    
   2.00  12.00    -0.77602E-01
   2.00  13.00    -0.23922E-01
   2.00  14.00     0.56998E-02
   2.00  15.00    -0.10391E-01
   2.00  16.00    -0.83005E-01
   2.00  17.00    -0.20649    
   2.00  18.00    -0.35811    
   2.00  19.00    -0.50282    
   2.00  20.00    -0.60234    
   2.00  21.00    -0.62560    
   2.00  22.00    -0.55767    
   2.00  23.00    -0.40433    
   2.00  24.00    -0.19094    
   2.00  25.00     0.43974E-01
   2.00  26.00     0.25852    
   2.00  27.00     0.41781    
   2.00  28.00     0.50184    
   2.00  29.00     0.50901    
   2.00  30.00     0.45447    
   2.00  31.00     0.36412    
   2.00  32.00     0.26651    
   2.00  33.00     0.18494    
   2.00  34.00     0.13200    
   2.00  35.00     0.10800    
   2.00  36.00     0.10301    
   2.00  37.00     0.10182    
   2.00  38.00     0.89644E-01
   2.00  39.00     0.57085E-01
   2.00  40.00     0.27059E-02
   2.00  41.00    -0.67140E-01
   2.00  42.00    -0.14102    
   2.00  43.00    -0.20625    
   2.00  44.00    -0.25305    
   2.00  45.00    -0.27727    
   2.00  46.00    -0.28105    
   2.00  47.00    -0.27212    
   2.00  48.00    -0.26075    
   2.00  49.00    -0.25646    
   2.00  50.00    -0.26546    
   2.00  51.00    -0.28840    
   2.00  52.00    -0.32019    
   2.00  53.00    -0.35146    
   2.00  54.00    -0.37069    
   2.00  55.00    -0.36740    
   2.00  56.00    -0.33506    
   2.00  57.00    -0.27285    
   2.00  58.00    -0.18717    
   2.00  59.00    -0.90189E-01
   2.00  60.00     0.14595E-02
   2.00  61.00     0.70538E-01
   2.00  62.00     0.10242    
   2.00  63.00     0.88470E-01
   2.00  64.00     0.28061E-01
   2.00  65.00    -0.70598E-01
   2.00  66.00    -0.19266    
   2.00  67.00    -0.31927    
   2.00  68.00    -0.43186    
   2.00  69.00    -0.51645    
   2.00  70.00    -0.56557    
   2.00  71.00    -0.58092    
   2.00  72.00    -0.56978    
   2.00  73.00    -0.54366    
   2.00  74.00    -0.51383    
   2.00  75.00    -0.48849    
   2.00  76.00    -0.46944    
   2.00  77.00    -0.45456    
   2.00  78.00    -0.43850    
   2.00  79.00    -0.41727    
   2.00  80.00    -0.39011    
   2.00  81.00    -0.36328    
   2.00  82.00    -0.34829    
   2.00  83.00    -0.35804    
   2.00  84.00    -0.40331    
   2.00  85.00    -0.48764    
   2.00  86.00    -0.60203    
   2.00  87.00    -0.72701    
   2.00  88.00    -0.83436    
   2.00  89.00    -0.89511    
   3.00 -89.00     0.25833    
   3.00 -88.00     0.23540    
   3.00 -87.00     0.17013    
   3.00 -86.00     0.93125E-01
   3.00 -85.00     0.34638E-01
   3.00 -84.00     0.20751E-01
   3.00 -83.00     0.60907E-01
   3.00 -82.00     0.14688    
   3.00 -81.00     0.24921    
   3.00 -80.00     0.33051    
   3.00 -79.00     0.35269    
   3.00 -78.00     0.29212    
   3.00 -77.00     0.14386    
   3.00 -76.00    -0.72941E-01
   3.00 -75.00    -0.32059    
   3.00 -74.00    -0.55368    
   3.00 -73.00    -0.72940    
   3.00 -72.00    -0.82010    
   3.00 -71.00    -0.81993    
   3.00 -70.00    -0.74366    
   3.00 -69.00    -0.62289    
   3.00 -68.00    -0.49412    
   3.00 -67.00    -0.38936    
   3.00 -66.00    -0.32714    
   3.00 -65.00    -0.30939    
   3.00 -64.00    -0.32343    
   3.00 -63.00    -0.34837    
   3.00 -62.00    -0.36373    
   3.00 -61.00    -0.35595    
   3.00 -60.00    -0.32356    
   3.00 -59.00    -0.27592    
   3.00 -58.00    -0.22879    
   3.00 -57.00    -0.19867    
   3.00 -56.00    -0.19641    
   3.00 -55.00    -0.22332    
   3.00 -54.00    -0.27170    
   3.00 -53.00    -0.32771    
   3.00 -52.00    -0.37636    
   3.00 -51.00    -0.40638    
   3.00 -50.00    -0.41337    
   3.00 -49.00    -0.39957    
   3.00 -48.00    -0.37185    
   3.00 -47.00    -0.33760    
   3.00 -46.00    -0.30096    
   3.00 -45.00    -0.26134    
   3.00 -44.00    -0.21395    
   3.00 -43.00    -0.15251    
   3.00 -42.00    -0.73247E-01
   3.00 -41.00     0.22093E-01
   3.00 -40.00     0.12513    
   3.00 -39.00     0.22240    
   3.00 -38.00     0.29904    
   3.00 -37.00     0.34325    
   3.00 -36.00     0.34984    
   3.00 -35.00     0.32154    
   3.00 -34.00     0.26747    
   3.00 -33.00     0.19942    
   3.00 -32.00     0.12740    
   3.00 -31.00     0.56299E-01
   3.00 -30.00    -0.14946E-01
   3.00 -29.00    -0.91112E-01
   3.00 -28.00    -0.17626    
   3.00 -27.00    -0.26884    
   3.00 -26.00    -0.35841    
   3.00 -25.00    -0.42588    
   3.00 -24.00    -0.44759    
   3.00 -23.00    -0.40255    
   3.00 -22.00    -0.28048    
   3.00 -21.00    -0.87915E-01
   3.00 -20.00     0.15006    
   3.00 -19.00     0.39366    
   3.00 -18.00     0.59715    
   3.00 -17.00     0.72034    
   3.00 -16.00     0.73936    
   3.00 -15.00     0.65343    
   3.00 -14.00     0.48534    
   3.00 -13.00     0.27540    
   3.00 -12.00     0.70392E-01
   3.00 -11.00    -0.89114E-01
   3.00 -10.00    -0.17933    
   3.00  -9.00    -0.19855    
   3.00  -8.00    -0.16564    
   3.00  -7.00    -0.11255    
   3.00  -6.00    -0.73156E-01
   3.00  -5.00    -0.72273E-01
   3.00  -4.00    -0.11821    
   3.00  -3.00    -0.20108    
   3.00  -2.00    -0.29729    
   3.00  -1.00    -0.37820    
   3.00   0.00    -0.42023    
   3.00   1.00    -0.41262    
   3.00   2.00    -0.36059    
   3.00   3.00    -0.28279    
   3.00   4.00    -0.20425    
   3.00   5.00    -0.14733    
   3.00   6.00    -0.12397    
   3.00   7.00    -0.13187    
   3.00   8.00    -0.15598    
   3.00   9.00    -0.17465    
   3.00  10.00    -0.16830    
   3.00  11.00    -0.12742    
   3.00  12.00    -0.57141E-01
   3.00  13.00     0.23480E-01
   3.00  14.00     0.87259E-01
   3.00  15.00     0.10800    
   3.00  16.00     0.69881E-01
   3.00  17.00    -0.25953E-01
   3.00  18.00    -0.16003    
   3.00  19.00    -0.29890    
   3.00  20.00    -0.40406    
   3.00  21.00    -0.44280    
   3.00  22.00    -0.39763    
   3.00  23.00    -0.27158    
   3.00  24.00    -0.87589E-01
   3.00  25.00     0.11748    
   3.00  26.00     0.30266    
   3.00  27.00     0.43333    
   3.00  28.00     0.48962    
   3.00  29.00     0.47018    
   3.00  30.00     0.39085    
   3.00  31.00     0.27878    
   3.00  32.00     0.16399    
   3.00  33.00     0.71143E-01
   3.00  34.00     0.13621E-01
   3.00  35.00    -0.84980E-02
   3.00  36.00    -0.64542E-02
   3.00  37.00     0.21977E-02
   3.00  38.00    -0.16465E-03
   3.00  39.00    -0.25704E-01
   3.00  40.00    -0.77853E-01
   3.00  41.00    -0.15099    
   3.00  42.00    -0.23294    
   3.00  43.00    -0.30898    
   3.00  44.00    -0.36651    
   3.00  45.00    -0.39840    
   3.00  46.00    -0.40455    
   3.00  47.00    -0.39160    
   3.00  48.00    -0.37008    
   3.00  49.00    -0.35121    
   3.00  50.00    -0.34364    
   3.00  51.00    -0.35068    
   3.00  52.00    -0.36938    
   3.00  53.00    -0.39162    
   3.00  54.00    -0.40586    
   3.00  55.00    -0.40070    
   3.00  56.00    -0.36799    
   3.00  57.00    -0.30533    
   3.00  58.00    -0.21802    
   3.00  59.00    -0.11798    
   3.00  60.00    -0.22306E-01
   3.00  61.00     0.50525E-01
   3.00  62.00     0.84563E-01
   3.00  63.00     0.70041E-01
   3.00  64.00     0.61019E-02
   3.00  65.00    -0.98469E-01
   3.00  66.00    -0.22733    
   3.00  67.00    -0.35977    
   3.00  68.00    -0.47529    
   3.00  69.00    -0.55864    
   3.00  70.00    -0.60190    
   3.00  71.00    -0.60749    
   3.00  72.00    -0.58435    
   3.00  73.00    -0.54604    
   3.00  74.00    -0.50605    
   3.00  75.00    -0.47425    
   3.00  76.00    -0.45311    
   3.00  77.00    -0.44048    
