  20.00 -24.00     0.90151    
  20.00 -23.00     0.66093    
  20.00 -22.00     0.35729    
  20.00 -21.00     0.41627E-01
  20.00 -20.00    -0.23461    
  20.00 -19.00    -0.42961    
  20.00 -18.00    -0.51804    
  20.00 -17.00    -0.49355    
  20.00 -16.00    -0.36734    
  20.00 -15.00    -0.16391    
  20.00 -14.00     0.84533E-01
  20.00 -13.00     0.34361    
  20.00 -12.00     0.58147    
  20.00 -11.00     0.77238    
  20.00 -10.00     0.89936    
  20.00  -9.00     0.95593    
  20.00  -8.00     0.94705    
  20.00  -7.00     0.88865    
  20.00  -6.00     0.80572    
  20.00  -5.00     0.72835    
  20.00  -4.00     0.68636    
  20.00  -3.00     0.70323    
  20.00  -2.00     0.79085    
  20.00  -1.00     0.94650    
  20.00   0.00      1.1531    
  20.00   1.00      1.3826    
  20.00   2.00      1.6024    
  20.00   3.00      1.7821    
  20.00   4.00      1.8992    
  20.00   5.00      1.9423    
  20.00   6.00      1.9108    
  20.00   7.00      1.8115    
  20.00   8.00      1.6546    
  20.00   9.00      1.4492    
  20.00  10.00      1.2027    
  20.00  11.00     0.92153    
  20.00  12.00     0.61519    
  20.00  13.00     0.30011    
  20.00  14.00     0.19264E-02
  20.00  15.00    -0.24599    
  20.00  16.00    -0.40828    
  20.00  17.00    -0.45654    
  20.00  18.00    -0.37885    
  20.00  19.00    -0.18675    
  20.00  20.00     0.83406E-01
  20.00  21.00     0.37594    
  20.00  22.00     0.62753    
  20.00  23.00     0.78224    
  20.00  24.00     0.80574    
  20.00  25.00     0.69426    
  20.00  26.00     0.47557    
  20.00  27.00     0.20114    
  20.00  28.00    -0.68239E-01
  20.00  29.00    -0.27932    
  20.00  30.00    -0.40053    
  20.00  31.00    -0.42908    
  20.00  32.00    -0.38898    
  20.00  33.00    -0.32046    
  20.00  34.00    -0.26458    
  20.00  35.00    -0.24784    
  20.00  36.00    -0.27215    
  20.00  37.00    -0.31349    
  20.00  38.00    -0.32997    
  20.00  39.00    -0.27670    
  20.00  40.00    -0.12289    
  20.00  41.00     0.13471    
  20.00  42.00     0.46662    
  20.00  43.00     0.81526    
  20.00  44.00      1.1094    
  20.00  45.00      1.2833    
  20.00  46.00      1.2955    
  20.00  47.00      1.1406    
  20.00  48.00     0.85262    
  20.00  49.00     0.49577    
  20.00  50.00     0.14822    
  20.00  51.00    -0.11838    
  20.00  52.00    -0.25636    
  20.00  53.00    -0.25268    
  20.00  54.00    -0.12913    
  20.00  55.00     0.66592E-01
  20.00  56.00     0.27704    
  20.00  57.00     0.45123    
  20.00  58.00     0.55850    
  20.00  59.00     0.59460    
  20.00  60.00     0.57855    
  20.00  61.00     0.54363    
  20.00  62.00     0.52417    
  20.00  63.00     0.54358    
  20.00  64.00     0.60572    
  20.00  65.00     0.69441    
  20.00  66.00     0.77881    
  20.00  67.00     0.82387    
  20.00  68.00     0.80081    
  20.00  69.00     0.69717    
  20.00  70.00     0.52026    
  20.00  71.00     0.29440    
  20.00  72.00     0.57120E-01
  20.00  73.00    -0.15265    
  20.00  74.00    -0.30342    
  20.00  75.00    -0.37757    
  20.00  76.00    -0.37390    
  20.00  77.00    -0.30640    
  20.00  78.00    -0.20022    
  20.00  79.00    -0.84061E-01
  20.00  80.00     0.18970E-01
  20.00  81.00     0.90836E-01
  20.00  82.00     0.12493    
  20.00  83.00     0.12403    
  20.00  84.00     0.98385E-01
  20.00  85.00     0.64710E-01
  20.00  86.00     0.35010E-01
  20.00  87.00     0.20859E-01
  20.00  88.00     0.29328E-01
  20.00  89.00     0.59903E-01
  21.00 -89.00     0.48770    
  21.00 -88.00     0.36615    
  21.00 -87.00     0.18377    
  21.00 -86.00    -0.15904E-02
  21.00 -85.00    -0.12937    
  21.00 -84.00    -0.15726    
  21.00 -83.00    -0.68067E-01
  21.00 -82.00     0.11722    
  21.00 -81.00     0.35382    
  21.00 -80.00     0.58056    
  21.00 -79.00     0.73723    
  21.00 -78.00     0.78662    
  21.00 -77.00     0.71914    
  21.00 -76.00     0.55624    
  21.00 -75.00     0.34431    
  21.00 -74.00     0.13523    
  21.00 -73.00    -0.26282E-01
  21.00 -72.00    -0.11463    
  21.00 -71.00    -0.13063    
  21.00 -70.00    -0.95052E-01
  21.00 -69.00    -0.41580E-01
  21.00 -68.00    -0.14634E-02
  21.00 -67.00     0.71634E-02
  21.00 -66.00    -0.16392E-01
  21.00 -65.00    -0.56714E-01
  21.00 -64.00    -0.89268E-01
  21.00 -63.00    -0.93990E-01
  21.00 -62.00    -0.62248E-01
  21.00 -61.00    -0.35991E-02
  21.00 -60.00     0.57817E-01
  21.00 -59.00     0.90629E-01
  21.00 -58.00     0.68262E-01
  21.00 -57.00    -0.20857E-01
  21.00 -56.00    -0.16807    
  21.00 -55.00    -0.34525    
  21.00 -54.00    -0.51333    
  21.00 -53.00    -0.63347    
  21.00 -52.00    -0.68000    
  21.00 -51.00    -0.64696    
  21.00 -50.00    -0.55040    
  21.00 -49.00    -0.42150    
  21.00 -48.00    -0.29673    
  21.00 -47.00    -0.20507    
  21.00 -46.00    -0.15981    
  21.00 -45.00    -0.15495    
  21.00 -44.00    -0.16938    
  21.00 -43.00    -0.17524    
  21.00 -42.00    -0.14938    
  21.00 -41.00    -0.81835E-01
  21.00 -40.00     0.20284E-01
  21.00 -39.00     0.13555    
  21.00 -38.00     0.23643    
  21.00 -37.00     0.29988    
  21.00 -36.00     0.31666    
  21.00 -35.00     0.29581    
  21.00 -34.00     0.26266    
  21.00 -33.00     0.25084    
  21.00 -32.00     0.29090    
  21.00 -31.00     0.39912    
  21.00 -30.00     0.57053    
  21.00 -29.00     0.77818    
  21.00 -28.00     0.97919    
  21.00 -27.00      1.1257    
  21.00 -26.00      1.1776    
  21.00 -25.00      1.1128    
  21.00 -24.00     0.93296    
  21.00 -23.00     0.66284    
  21.00 -22.00     0.34386    
  21.00 -21.00     0.24486E-01
  21.00 -20.00    -0.24997    
  21.00 -19.00    -0.44540    
  21.00 -18.00    -0.54311    
  21.00 -17.00    -0.54005    
  21.00 -16.00    -0.44608    
  21.00 -15.00    -0.27978    
  21.00 -14.00    -0.64527E-01
  21.00 -13.00     0.17436    
  21.00 -12.00     0.41137    
  21.00 -11.00     0.62208    
  21.00 -10.00     0.78483    
  21.00  -9.00     0.88335    
  21.00  -8.00     0.91007    
  21.00  -7.00     0.86918    
  21.00  -6.00     0.77791    
  21.00  -5.00     0.66510    
  21.00  -4.00     0.56637    
  21.00  -3.00     0.51672    
  21.00  -2.00     0.54229    
  21.00  -1.00     0.65358    
  21.00   0.00     0.84212    
  21.00   1.00      1.0818    
  21.00   2.00      1.3349    
  21.00   3.00      1.5602    
  21.00   4.00      1.7225    
  21.00   5.00      1.7990    
  21.00   6.00      1.7823    
  21.00   7.00      1.6791    
  21.00   8.00      1.5058    
  21.00   9.00      1.2820    
  21.00  10.00      1.0270    
  21.00  11.00     0.75650    
  21.00  12.00     0.48449    
  21.00  13.00     0.22546    
  21.00  14.00    -0.27273E-02
  21.00  15.00    -0.17816    
  21.00  16.00    -0.27763    
  21.00  17.00    -0.28246    
  21.00  18.00    -0.18571    
  21.00  19.00     0.17335E-02
  21.00  20.00     0.24917    
  21.00  21.00     0.50966    
  21.00  22.00     0.72918    
  21.00  23.00     0.85919    
  21.00  24.00     0.86910    
  21.00  25.00     0.75480    
  21.00  26.00     0.54016    
  21.00  27.00     0.27090    
  21.00  28.00     0.20819E-02
  21.00  29.00    -0.21695    
  21.00  30.00    -0.35559    
  21.00  31.00    -0.40890    
  21.00  32.00    -0.39624    
  21.00  33.00    -0.35209    
  21.00  34.00    -0.31210    
  21.00  35.00    -0.29911    
  21.00  36.00    -0.31394    
  21.00  37.00    -0.33428    
  21.00  38.00    -0.32228    
  21.00  39.00    -0.23857    
  21.00  40.00    -0.58147E-01
  21.00  41.00     0.21721    
  21.00  42.00     0.55461    
  21.00  43.00     0.89523    
  21.00  44.00      1.1688    
  21.00  45.00      1.3123    
  21.00  46.00      1.2884    
  21.00  47.00      1.0965    
  21.00  48.00     0.77504    
  21.00  49.00     0.39182    
  21.00  50.00     0.27324E-01
  21.00  51.00    -0.24619    
  21.00  52.00    -0.38196    
  21.00  53.00    -0.36911    
  21.00  54.00    -0.23216    
  21.00  55.00    -0.21914E-01
  21.00  56.00     0.20153    
  21.00  57.00     0.38527    
  21.00  58.00     0.49765    
  21.00  59.00     0.53423    
  21.00  60.00     0.51460    
  21.00  61.00     0.47293    
  21.00  62.00     0.44474    
  21.00  63.00     0.45460    
  21.00  64.00     0.50760    
  21.00  65.00     0.58887    
  21.00  66.00     0.66890    
  21.00  67.00     0.71396    
  21.00  68.00     0.69638    
  21.00  69.00     0.60448    
  21.00  70.00     0.44534    
  21.00  71.00     0.24209    
  21.00  72.00     0.30510E-01
  21.00  73.00    -0.15358    
  21.00  74.00    -0.28141    
  21.00  75.00    -0.33784    
  21.00  76.00    -0.32345    
  21.00  77.00    -0.25216    
  21.00  78.00    -0.14796    
  21.00  79.00    -0.37391E-01
  21.00  80.00     0.59028E-01
  21.00  81.00     0.12537    
  21.00  82.00     0.15638    
  21.00  83.00     0.15486    
  21.00  84.00     0.12999    
  21.00  85.00     0.96559E-01
  21.00  86.00     0.65308E-01
  21.00  87.00     0.46616E-01
  21.00  88.00     0.47748E-01
  21.00  89.00     0.69221E-01
  22.00 -89.00     0.48829    
  22.00 -88.00     0.36679    
  22.00 -87.00     0.18421    
  22.00 -86.00    -0.14051E-02
  22.00 -85.00    -0.12912    
  22.00 -84.00    -0.15642    
  22.00 -83.00    -0.65722E-01
  22.00 -82.00     0.12074    
  22.00 -81.00     0.35868    
  22.00 -80.00     0.58668    
  22.00 -79.00     0.74472    
  22.00 -78.00     0.79647    
  22.00 -77.00     0.73330    
  22.00 -76.00     0.57774    
  22.00 -75.00     0.37667    
  22.00 -74.00     0.18176    
  22.00 -73.00     0.36567E-01
  22.00 -72.00    -0.35369E-01
  22.00 -71.00    -0.37589E-01
  22.00 -70.00     0.65044E-02
  22.00 -69.00     0.61354E-01
  22.00 -68.00     0.95068E-01
  22.00 -67.00     0.90292E-01
  22.00 -66.00     0.48424E-01
  22.00 -65.00    -0.11991E-01
  22.00 -64.00    -0.63349E-01
  22.00 -63.00    -0.82914E-01
  22.00 -62.00    -0.60488E-01
  22.00 -61.00    -0.54056E-02
  22.00 -60.00     0.57146E-01
  22.00 -59.00     0.94010E-01
  22.00 -58.00     0.76611E-01
  22.00 -57.00    -0.82358E-02
  22.00 -56.00    -0.15283    
  22.00 -55.00    -0.32882    
  22.00 -54.00    -0.49643    
  22.00 -53.00    -0.61546    
  22.00 -52.00    -0.65895    
  22.00 -51.00    -0.62002    
  22.00 -50.00    -0.51430    
  22.00 -49.00    -0.37340    
  22.00 -48.00    -0.23479    
  22.00 -47.00    -0.12903    
  22.00 -46.00    -0.71378E-01
  22.00 -45.00    -0.57889E-01
  22.00 -44.00    -0.69300E-01
  22.00 -43.00    -0.79204E-01
  22.00 -42.00    -0.64899E-01
  22.00 -41.00    -0.15646E-01
  22.00 -40.00     0.63709E-01
  22.00 -39.00     0.15552    
  22.00 -38.00     0.23702    
  22.00 -37.00     0.29018    
  22.00 -36.00     0.30984    
  22.00 -35.00     0.30701    
  22.00 -34.00     0.30605    
  22.00 -33.00     0.33633    
  22.00 -32.00     0.42139    
  22.00 -31.00     0.56912    
  22.00 -30.00     0.76661    
  22.00 -29.00     0.98149    
  22.00 -28.00      1.1695    
  22.00 -27.00      1.2860    
  22.00 -26.00      1.2981    
  22.00 -25.00      1.1933    
  22.00 -24.00     0.98237    
  22.00 -23.00     0.69647    
  22.00 -22.00     0.37863    
  22.00 -21.00     0.73581E-01
  22.00 -20.00    -0.18155    
  22.00 -19.00    -0.36294    
  22.00 -18.00    -0.46131    
  22.00 -17.00    -0.47922    
  22.00 -16.00    -0.42644    
  22.00 -15.00    -0.31544    
  22.00 -14.00    -0.15894    
  22.00 -13.00     0.30015E-01
  22.00 -12.00     0.23638    
  22.00 -11.00     0.44125    
  22.00 -10.00     0.62179    
  22.00  -9.00     0.75399    
  22.00  -8.00     0.81799    
  22.00  -7.00     0.80448    
  22.00  -6.00     0.71979    
  22.00  -5.00     0.58745    
  22.00  -4.00     0.44483    
  22.00  -3.00     0.33520    
  22.00  -2.00     0.29711    
  22.00  -1.00     0.35402    
  22.00   0.00     0.50742    
  22.00   1.00     0.73557    
  22.00   2.00     0.99842    
  22.00   3.00      1.2473    
  22.00   4.00      1.4365    
  22.00   5.00      1.5336    
  22.00   6.00      1.5257    
  22.00   7.00      1.4193    
  22.00   8.00      1.2367    
  22.00   9.00      1.0075    
  22.00  10.00     0.76161    
  22.00  11.00     0.52336    
  22.00  12.00     0.30954    
  22.00  13.00     0.13102    
  22.00  14.00    -0.40796E-02
  22.00  15.00    -0.87454E-01
  22.00  16.00    -0.11000    
  22.00  17.00    -0.64194E-01
  22.00  18.00     0.51243E-01
  22.00  19.00     0.22650    
  22.00  20.00     0.43799    
  22.00  21.00     0.64988    
  22.00  22.00     0.82027    
  22.00  23.00     0.91082    
  22.00  24.00     0.89705    
  22.00  25.00     0.77587    
  22.00  26.00     0.56767    
  22.00  27.00     0.31173    
  22.00  28.00     0.55918E-01
  22.00  29.00    -0.15615    
  22.00  30.00    -0.29671    
  22.00  31.00    -0.36022    
  22.00  32.00    -0.36252    
  22.00  33.00    -0.33289    
  22.00  34.00    -0.30174    
  22.00  35.00    -0.28817    
  22.00  36.00    -0.29176    
  22.00  37.00    -0.29178    
  22.00  38.00    -0.25434    
  22.00  39.00    -0.14545    
  22.00  40.00     0.54320E-01
  22.00  41.00     0.33863    
  22.00  42.00     0.67186    
  22.00  43.00     0.99488    
  22.00  44.00      1.2393    
  22.00  45.00      1.3457    
  22.00  46.00      1.2816    
  22.00  47.00      1.0512    
  22.00  48.00     0.69711    
  22.00  49.00     0.29017    
  22.00  50.00    -0.87752E-01
  22.00  51.00    -0.36469    
  22.00  52.00    -0.49561    
  22.00  53.00    -0.47231    
  22.00  54.00    -0.32231    
  22.00  55.00    -0.99386E-01
  22.00  56.00     0.13398    
  22.00  57.00     0.32338    
  22.00  58.00     0.43666    
  22.00  59.00     0.46951    
  22.00  60.00     0.44245    
  22.00  61.00     0.39074    
  22.00  62.00     0.35121    
  22.00  63.00     0.34970    
  22.00  64.00     0.39255    
  22.00  65.00     0.46623    
  22.00  66.00     0.54254    
  22.00  67.00     0.58893    
  22.00  68.00     0.57874    
  22.00  69.00     0.50077    
  22.00  70.00     0.36166    
  22.00  71.00     0.18316    
  22.00  72.00    -0.10247E-02
  22.00  73.00    -0.15819    
  22.00  74.00    -0.26233    
  22.00  75.00    -0.30073    
  22.00  76.00    -0.27560    
  22.00  77.00    -0.20061    
  22.00  78.00    -0.98484E-01
  22.00  79.00     0.65327E-02
  22.00  80.00     0.96535E-01
  22.00  81.00     0.15771    
  22.00  82.00     0.18606    
  22.00  83.00     0.18443    
  22.00  84.00     0.16080    
  22.00  85.00     0.12791    
  22.00  86.00     0.95346E-01
  22.00  87.00     0.72277E-01
  22.00  88.00     0.66142E-01
  22.00  89.00     0.78541E-01
  23.00 -89.00     0.48890    
  23.00 -88.00     0.36754    
  23.00 -87.00     0.18489    
  23.00 -86.00    -0.87043E-03
  23.00 -85.00    -0.12855    
  23.00 -84.00    -0.15542    
  23.00 -83.00    -0.63686E-01
  23.00 -82.00     0.12341    
  23.00 -81.00     0.36190    
  23.00 -80.00     0.59027    
  23.00 -79.00     0.74882    
  23.00 -78.00     0.80214    
  23.00 -77.00     0.74269    
  23.00 -76.00     0.59411    
  23.00 -75.00     0.40377    
  23.00 -74.00     0.22313    
  23.00 -73.00     0.94466E-01
  23.00 -72.00     0.39099E-01
  23.00 -71.00     0.50731E-01
  23.00 -70.00     0.10305    
  23.00 -69.00     0.15851    
  23.00 -68.00     0.18450    
  23.00 -67.00     0.16442    
  23.00 -66.00     0.10189    
  23.00 -65.00     0.18874E-01
  23.00 -64.00    -0.53752E-01
  23.00 -63.00    -0.90069E-01
  23.00 -62.00    -0.77956E-01
  23.00 -61.00    -0.26174E-01
  23.00 -60.00     0.39247E-01
  23.00 -59.00     0.83410E-01
  23.00 -58.00     0.75561E-01
  23.00 -57.00     0.51231E-03
  23.00 -56.00    -0.13548    
  23.00 -55.00    -0.30450    
  23.00 -54.00    -0.46664    
  23.00 -53.00    -0.58089    
  23.00 -52.00    -0.61937    
  23.00 -51.00    -0.57455    
  23.00 -50.00    -0.46156    
  23.00 -49.00    -0.31223    
  23.00 -48.00    -0.16464    
  23.00 -47.00    -0.50459E-01
  23.00 -46.00     0.13699E-01
  23.00 -45.00     0.30155E-01
  23.00 -44.00     0.16724E-01
  23.00 -43.00    -0.14517E-02
  23.00 -42.00    -0.21199E-02
  23.00 -41.00     0.26050E-01
  23.00 -40.00     0.80189E-01
  23.00 -39.00     0.14610    
  23.00 -38.00     0.20552    
  23.00 -37.00     0.24532    
  23.00 -36.00     0.26445    
  23.00 -35.00     0.27618    
  23.00 -34.00     0.30423    
  23.00 -33.00     0.37412    
  23.00 -32.00     0.50272    
  23.00 -31.00     0.68977    
  23.00 -30.00     0.91458    
  23.00 -29.00      1.1394    
  23.00 -28.00      1.3187    
  23.00 -27.00      1.4113    
  23.00 -26.00      1.3918    
  23.00 -25.00      1.2576    
  23.00 -24.00      1.0292    
  23.00 -23.00     0.74406    
  23.00 -22.00     0.44654    
  23.00 -21.00     0.17652    
  23.00 -20.00    -0.38835E-01
  23.00 -19.00    -0.18841    
  23.00 -18.00    -0.27497    
  23.00 -17.00    -0.30913    
  23.00 -16.00    -0.30214    
  23.00 -15.00    -0.26072    
  23.00 -14.00    -0.18575    
  23.00 -13.00    -0.75242E-01
  23.00 -12.00     0.70042E-01
  23.00 -11.00     0.24107    
  23.00 -10.00     0.41787    
  23.00  -9.00     0.57164    
  23.00  -8.00     0.67148    
  23.00  -7.00     0.69394    
  23.00  -6.00     0.63194    
  23.00  -5.00     0.49994    
  23.00  -4.00     0.33280    
  23.00  -3.00     0.17810    
  23.00  -2.00     0.83871E-01
  23.00  -1.00     0.85200E-01
  23.00   0.00     0.19388    
  23.00   1.00     0.39430    
  23.00   2.00     0.64704    
  23.00   3.00     0.89899    
  23.00   4.00      1.0971    
  23.00   5.00      1.2017    
  23.00   6.00      1.1953    
  23.00   7.00      1.0849    
  23.00   8.00     0.89797    
  23.00   9.00     0.67308    
  23.00  10.00     0.44934    
  23.00  11.00     0.25771    
  23.00  12.00     0.11639    
  23.00  13.00     0.31080E-01
  23.00  14.00    -0.11369E-02
  23.00  15.00     0.13420E-01
  23.00  16.00     0.69060E-01
  23.00  17.00     0.16188    
  23.00  18.00     0.28784    
  23.00  19.00     0.43907    
  23.00  20.00     0.60052    
  23.00  21.00     0.74928    
  23.00  22.00     0.85754    
  23.00  23.00     0.89898    
  23.00  24.00     0.85660    
  23.00  25.00     0.72910    
  23.00  26.00     0.53338    
  23.00  27.00     0.30156    
  23.00  28.00     0.73146E-01
  23.00  29.00    -0.11551    
  23.00  30.00    -0.24102    
  23.00  31.00    -0.29861    
  23.00  32.00    -0.30163    
  23.00  33.00    -0.27487    
  23.00  34.00    -0.24396    
  23.00  35.00    -0.22444    
  23.00  36.00    -0.21473    
  23.00  37.00    -0.19561    
  23.00  38.00    -0.13694    
  23.00  39.00    -0.97527E-02
  23.00  40.00     0.20043    
  23.00  41.00     0.48358    
  23.00  42.00     0.80240    
  23.00  43.00      1.0986    
  23.00  44.00      1.3066    
  23.00  45.00      1.3717    
  23.00  46.00      1.2661    
  23.00  47.00     0.99898    
  23.00  48.00     0.61661    
  23.00  49.00     0.19174    
  23.00  50.00    -0.19347    
  23.00  51.00    -0.46838    
  23.00  52.00    -0.59052    
  23.00  53.00    -0.55485    
  23.00  54.00    -0.39200    
  23.00  55.00    -0.15848    
  23.00  56.00     0.81299E-01
  23.00  57.00     0.27202    
  23.00  58.00     0.38151    
  23.00  59.00     0.40611    
  23.00  60.00     0.36753    
  23.00  61.00     0.30234    
  23.00  62.00     0.24877    
  23.00  63.00     0.23392    
  23.00  64.00     0.26540    
  23.00  65.00     0.33098    
  23.00  66.00     0.40373    
  23.00  67.00     0.45220    
  23.00  68.00     0.45060    
  23.00  69.00     0.38805    
  23.00  70.00     0.27050    
  23.00  71.00     0.11825    
  23.00  72.00    -0.37398E-01
  23.00  73.00    -0.16681    
  23.00  74.00    -0.24680    
  23.00  75.00    -0.26701    
  23.00  76.00    -0.23114    
  23.00  77.00    -0.15254    
  23.00  78.00    -0.52449E-01
  23.00  79.00     0.47177E-01
  23.00  80.00     0.13109    
  23.00  81.00     0.18755    
  23.00  82.00     0.21380    
  23.00  83.00     0.21260    
  23.00  84.00     0.19072    
  23.00  85.00     0.15871    
  23.00  86.00     0.12510    
  23.00  87.00     0.97827E-01
  23.00  88.00     0.84499E-01
  23.00  89.00     0.87859E-01
  24.00 -89.00     0.48954    
  24.00 -88.00     0.36841    
  24.00 -87.00     0.18581    
  24.00 -86.00     0.11609E-04
  24.00 -85.00    -0.12764    
  24.00 -84.00    -0.15426    
  24.00 -83.00    -0.61967E-01
  24.00 -82.00     0.12523    
  24.00 -81.00     0.36350    
  24.00 -80.00     0.59138    
  24.00 -79.00     0.74955    
  24.00 -78.00     0.80364    
  24.00 -77.00     0.74724    
  24.00 -76.00     0.60518    
  24.00 -75.00     0.42524    
  24.00 -74.00     0.25868    
  24.00 -73.00     0.14644    
  24.00 -72.00     0.10747    
  24.00 -71.00     0.13272    
  24.00 -70.00     0.19275    
  24.00 -69.00     0.24799    
  24.00 -68.00     0.26503    
  24.00 -67.00     0.22803    
  24.00 -66.00     0.14294    
  24.00 -65.00     0.35349E-01
  24.00 -64.00    -0.60379E-01
  24.00 -63.00    -0.11476    
  24.00 -62.00    -0.11346    
  24.00 -61.00    -0.64362E-01
  24.00 -60.00     0.58337E-02
  24.00 -59.00     0.60523E-01
  24.00 -58.00     0.66610E-01
  24.00 -57.00     0.65527E-02
  24.00 -56.00    -0.11528    
  24.00 -55.00    -0.27203    
  24.00 -54.00    -0.42420    
  24.00 -53.00    -0.53057    
  24.00 -52.00    -0.56277    
  24.00 -51.00    -0.51286    
  24.00 -50.00    -0.39551    
  24.00 -49.00    -0.24260    
  24.00 -48.00    -0.92356E-01
  24.00 -47.00     0.23060E-01
  24.00 -46.00     0.86351E-01
  24.00 -45.00     0.98928E-01
  24.00 -44.00     0.77757E-01
  24.00 -43.00     0.47092E-01
  24.00 -42.00     0.28836E-01
  24.00 -41.00     0.34688E-01
  24.00 -40.00     0.63270E-01
  24.00 -39.00     0.10315    
  24.00 -38.00     0.13989    
  24.00 -37.00     0.16465    
  24.00 -36.00     0.18022    
  24.00 -35.00     0.20212    
  24.00 -34.00     0.25380    
  24.00 -33.00     0.35756    
  24.00 -32.00     0.52440    
  24.00 -31.00     0.74664    
  24.00 -30.00     0.99647    
  24.00 -29.00      1.2312    
  24.00 -28.00      1.4042    
  24.00 -27.00      1.4779    
  24.00 -26.00      1.4346    
  24.00 -25.00      1.2815    
  24.00 -24.00      1.0488    
  24.00 -23.00     0.78049    
  24.00 -22.00     0.52175    
  24.00 -21.00     0.30694    
  24.00 -20.00     0.15196    
  24.00 -19.00     0.53374E-01
  24.00 -18.00    -0.58968E-02
  24.00 -17.00    -0.46764E-01
  24.00 -16.00    -0.83882E-01
  24.00 -15.00    -0.11917    
  24.00 -14.00    -0.14137    
  24.00 -13.00    -0.13177    
  24.00 -12.00    -0.73785E-01
  24.00 -11.00     0.37278E-01
  24.00 -10.00     0.18838    
  24.00  -9.00     0.34938    
  24.00  -8.00     0.48055    
  24.00  -7.00     0.54471    
  24.00  -6.00     0.52002    
  24.00  -5.00     0.40889    
  24.00  -4.00     0.23969    
  24.00  -3.00     0.60208E-01
  24.00  -2.00    -0.75548E-01
  24.00  -1.00    -0.12308    
  24.00   0.00    -0.60869E-01
  24.00   1.00     0.10266    
  24.00   2.00     0.33104    
  24.00   3.00     0.56979    
  24.00   4.00     0.76162    
  24.00   5.00     0.86198    
  24.00   6.00     0.85047    
  24.00   7.00     0.73489    
  24.00   8.00     0.54717    
  24.00   9.00     0.33302    
  24.00  10.00     0.13890    
  24.00  11.00     0.42018E-03
  24.00  12.00    -0.64493E-01
  24.00  13.00    -0.56388E-01
  24.00  14.00     0.10323E-01
  24.00  15.00     0.11486    
  24.00  16.00     0.23741    
  24.00  17.00     0.36365    
  24.00  18.00     0.48544    
  24.00  19.00     0.59810    
  24.00  20.00     0.69639    
  24.00  21.00     0.77139    
  24.00  22.00     0.81029    
  24.00  23.00     0.79939    
  24.00  24.00     0.72942    
  24.00  25.00     0.60080    
  24.00  26.00     0.42653    
  24.00  27.00     0.23093    
  24.00  28.00     0.44222E-01
  24.00  29.00    -0.10547    
  24.00  30.00    -0.20010    
  24.00  31.00    -0.23661    
  24.00  32.00    -0.22667    
  24.00  33.00    -0.19132    
  24.00  34.00    -0.15195    
  24.00  35.00    -0.12105    
  24.00  36.00    -0.96140E-01
  24.00  37.00    -0.59567E-01
  24.00  38.00     0.15239E-01
  24.00  39.00     0.15281    
  24.00  40.00     0.36355    
  24.00  41.00     0.63491    
  24.00  42.00     0.92925    
  24.00  43.00      1.1904    
  24.00  44.00      1.3568    
  24.00  45.00      1.3787    
  24.00  46.00      1.2337    
  24.00  47.00     0.93506    
  24.00  48.00     0.53189    
  24.00  49.00     0.97735E-01
  24.00  50.00    -0.28632    
  24.00  51.00    -0.55210    
  24.00  52.00    -0.66054    
  24.00  53.00    -0.61011    
  24.00  54.00    -0.43462    
  24.00  55.00    -0.19283    
  24.00  56.00     0.49508E-01
  24.00  57.00     0.23686    
  24.00  58.00     0.33765    
  24.00  59.00     0.34935    
  24.00  60.00     0.29517    
  24.00  61.00     0.21313    
  24.00  62.00     0.14285    
  24.00  63.00     0.11268    
  24.00  64.00     0.13144    
  24.00  65.00     0.18810    
  24.00  66.00     0.25697    
  24.00  67.00     0.30765    
  24.00  68.00     0.31512    
  24.00  69.00     0.26866    
  24.00  70.00     0.17343    
  24.00  71.00     0.48242E-01
  24.00  72.00    -0.78325E-01
  24.00  73.00    -0.17961    
  24.00  74.00    -0.23531    
  24.00  75.00    -0.23735    
  24.00  76.00    -0.19080    
  24.00  77.00    -0.10862    
  24.00  78.00    -0.10465E-01
  24.00  79.00     0.84054E-01
  24.00  80.00     0.16231    
  24.00  81.00     0.21464    
  24.00  82.00     0.23942    
  24.00  83.00     0.23926    
  24.00  84.00     0.21967    
  24.00  85.00     0.18893    
  24.00  86.00     0.15454    
  24.00  87.00     0.12325    
  24.00  88.00     0.10281    
  24.00  89.00     0.97173E-01
  25.00 -89.00     0.49021    
  25.00 -88.00     0.36939    
  25.00 -87.00     0.18697    
  25.00 -86.00     0.12373E-02
  25.00 -85.00    -0.12640    
  25.00 -84.00    -0.15293    
  25.00 -83.00    -0.60565E-01
  25.00 -82.00     0.12621    
  25.00 -81.00     0.36351    
  25.00 -80.00     0.59006    
  25.00 -79.00     0.74702    
  25.00 -78.00     0.80105    
  25.00 -77.00     0.74700    
  25.00 -76.00     0.61086    
  25.00 -75.00     0.44082    
  25.00 -74.00     0.28792    
  25.00 -73.00     0.19170    
  25.00 -72.00     0.16867    
  25.00 -71.00     0.20704    
  25.00 -70.00     0.27412    
  25.00 -69.00     0.32829    
  25.00 -68.00     0.33535    
  25.00 -67.00     0.28016    
  25.00 -66.00     0.17118    
  25.00 -65.00     0.37686E-01
  25.00 -64.00    -0.82256E-01
  25.00 -63.00    -0.15537    
  25.00 -62.00    -0.16485    
  25.00 -61.00    -0.11753    
  25.00 -60.00    -0.40606E-01
  25.00 -59.00     0.27610E-01
  25.00 -58.00     0.51554E-01
  25.00 -57.00     0.11036E-01
  25.00 -56.00    -0.91828E-01
  25.00 -55.00    -0.23180    
  25.00 -54.00    -0.37028    
  25.00 -53.00    -0.46642    
  25.00 -52.00    -0.49177    
  25.00 -51.00    -0.43822    
  25.00 -50.00    -0.32013    
  25.00 -49.00    -0.16919    
  25.00 -48.00    -0.23341E-01
  25.00 -47.00     0.85375E-01
  25.00 -46.00     0.13983    
  25.00 -45.00     0.14137    
  25.00 -44.00     0.10690    
  25.00 -43.00     0.60340E-01
  25.00 -42.00     0.23411E-01
  25.00 -41.00     0.79424E-02
  25.00 -40.00     0.13405E-01
  25.00 -39.00     0.30137E-01
  25.00 -38.00     0.46435E-01
  25.00 -37.00     0.56717E-01
  25.00 -36.00     0.66905E-01
  25.00 -35.00     0.94531E-01
  25.00 -34.00     0.16309    
  25.00 -33.00     0.29245    
  25.00 -32.00     0.48882    
  25.00 -31.00     0.73835    
  25.00 -30.00      1.0071    
  25.00 -29.00      1.2483    
  25.00 -28.00      1.4146    
  25.00 -27.00      1.4719    
  25.00 -26.00      1.4099    
  25.00 -25.00      1.2457    
  25.00 -24.00      1.0188    
  25.00 -23.00     0.77943    
  25.00 -22.00     0.57375    
  25.00 -21.00     0.43035    
  25.00 -20.00     0.35338    
  25.00 -19.00     0.32386    
  25.00 -18.00     0.30887    
  25.00 -17.00     0.27529    
  25.00 -16.00     0.20308    
  25.00 -15.00     0.93465E-01
  25.00 -14.00    -0.30967E-01
  25.00 -13.00    -0.13442    
  25.00 -12.00    -0.18133    
  25.00 -11.00    -0.15047    
  25.00 -10.00    -0.44475E-01
  25.00  -9.00     0.10875    
  25.00  -8.00     0.26350    
  25.00  -7.00     0.37047    
  25.00  -6.00     0.39297    
  25.00  -5.00     0.31964    
  25.00  -4.00     0.16935    
  25.00  -3.00    -0.13634E-01
  25.00  -2.00    -0.17288    
  25.00  -1.00    -0.25720    
  25.00   0.00    -0.23670    
  25.00   1.00    -0.11237    
  25.00   2.00     0.83933E-01
  25.00   3.00     0.29894    
  25.00   4.00     0.47391    
  25.00   5.00     0.56188    
  25.00   6.00     0.54103    
  25.00   7.00     0.42008    
  25.00   8.00     0.23452    
  25.00   9.00     0.35315E-01
  25.00  10.00    -0.12605    
  25.00  11.00    -0.21147    
  25.00  12.00    -0.20484    
  25.00  13.00    -0.11358    
  25.00  14.00     0.36792E-01
  25.00  15.00     0.21233    
  25.00  16.00     0.38095    
  25.00  17.00     0.52004    
  25.00  18.00     0.61928    
  25.00  19.00     0.67875    
  25.00  20.00     0.70388    
  25.00  21.00     0.70004    
  25.00  22.00     0.66912    
  25.00  23.00     0.60940    
  25.00  24.00     0.51850    
  25.00  25.00     0.39771    
  25.00  26.00     0.25535    
  25.00  27.00     0.10734    
  25.00  28.00    -0.25749E-01
  25.00  29.00    -0.12434    
  25.00  30.00    -0.17604    
  25.00  31.00    -0.17978    
  25.00  32.00    -0.14606    
  25.00  33.00    -0.92750E-01
  25.00  34.00    -0.37695E-01
  25.00  35.00     0.90316E-02
  25.00  36.00     0.50275E-01
  25.00  37.00     0.10187    
  25.00  38.00     0.18701    
  25.00  39.00     0.32642    
  25.00  40.00     0.52748    
  25.00  41.00     0.77650    
  25.00  42.00      1.0370    
  25.00  43.00      1.2563    
  25.00  44.00      1.3779    
  25.00  45.00      1.3576    
  25.00  46.00      1.1780    
  25.00  47.00     0.85612    
  25.00  48.00     0.44241    
  25.00  49.00     0.98945E-02
  25.00  50.00    -0.36286    
  25.00  51.00    -0.61132    
  25.00  52.00    -0.70058    
  25.00  53.00    -0.63290    
  25.00  54.00    -0.44510    
  25.00  55.00    -0.19765    
  25.00  56.00     0.43137E-01
  25.00  57.00     0.22228    
  25.00  58.00     0.30946    
  25.00  59.00     0.30376    
  25.00  60.00     0.23014    
  25.00  61.00     0.12816    
  25.00  62.00     0.38780E-01
  25.00  63.00    -0.85479E-02
  25.00  64.00    -0.39155E-02
  25.00  65.00     0.42784E-01
  25.00  66.00     0.10703    
  25.00  67.00     0.15943    
  25.00  68.00     0.17571    
  25.00  69.00     0.14524    
  25.00  70.00     0.72302E-01
  25.00  71.00    -0.25771E-01
  25.00  72.00    -0.12333    
  25.00  73.00    -0.19660    
  25.00  74.00    -0.22820    
  25.00  75.00    -0.21230    
  25.00  76.00    -0.15520    
  25.00  77.00    -0.69458E-01
  25.00  78.00     0.26927E-01
  25.00  79.00     0.11672    
  25.00  80.00     0.18988    
  25.00  81.00     0.23875    
  25.00  82.00     0.26276    
  25.00  83.00     0.26431    
  25.00  84.00     0.24757    
  25.00  85.00     0.21853    
  25.00  86.00     0.18364    
  25.00  87.00     0.14853    
  25.00  88.00     0.12107    
  25.00  89.00     0.10648    
  26.00 -89.00     0.49090    
  26.00 -88.00     0.37049    
  26.00 -87.00     0.18836    
  26.00 -86.00     0.28039E-02
  26.00 -85.00    -0.12482    
  26.00 -84.00    -0.15143    
  26.00 -83.00    -0.59466E-01
  26.00 -82.00     0.12640    
  26.00 -81.00     0.36201    
  26.00 -80.00     0.58641    
  26.00 -79.00     0.74134    
  26.00 -78.00     0.79451    
  26.00 -77.00     0.74208    
  26.00 -76.00     0.61118    
  26.00 -75.00     0.45040    
  26.00 -74.00     0.31051    
  26.00 -73.00     0.22967    
  26.00 -72.00     0.22188    
  26.00 -71.00     0.27265    
  26.00 -70.00     0.34601    
  26.00 -69.00     0.39833    
  26.00 -68.00     0.39460    
  26.00 -67.00     0.32045    
  26.00 -66.00     0.18687    
  26.00 -65.00     0.26855E-01
  26.00 -64.00    -0.11763    
  26.00 -63.00    -0.20947    
  26.00 -62.00    -0.22922    
  26.00 -61.00    -0.18253    
  26.00 -60.00    -0.97017E-01
  26.00 -59.00    -0.12698E-01
  26.00 -58.00     0.32301E-01
  26.00 -57.00     0.14926E-01
  26.00 -56.00    -0.65229E-01
  26.00 -55.00    -0.18500    
  26.00 -54.00    -0.30709    
  26.00 -53.00    -0.39149    
  26.00 -52.00    -0.41005    
  26.00 -51.00    -0.35475    
  26.00 -50.00    -0.23973    
  26.00 -49.00    -0.96374E-01
  26.00 -48.00     0.38075E-01
  26.00 -47.00     0.13236    
  26.00 -46.00     0.17037    
  26.00 -45.00     0.15438    
  26.00 -44.00     0.10206    
  26.00 -43.00     0.37691E-01
  26.00 -42.00    -0.16919E-01
  26.00 -41.00    -0.50065E-01
  26.00 -40.00    -0.62189E-01
  26.00 -39.00    -0.62396E-01
  26.00 -38.00    -0.61108E-01
  26.00 -37.00    -0.62019E-01
  26.00 -36.00    -0.57157E-01
  26.00 -35.00    -0.27464E-01
  26.00 -34.00     0.50795E-01
  26.00 -33.00     0.19590    
  26.00 -32.00     0.41065    
  26.00 -31.00     0.67653    
  26.00 -30.00     0.95494    
  26.00 -29.00      1.1959    
  26.00 -28.00      1.3518    
  26.00 -27.00      1.3920    
  26.00 -26.00      1.3131    
  26.00 -25.00      1.1412    
  26.00 -24.00     0.92474    
  26.00 -23.00     0.72030    
  26.00 -22.00     0.57501    
  26.00 -21.00     0.51232    
  26.00 -20.00     0.52509    
  26.00 -19.00     0.57893    
  26.00 -18.00     0.62460    
  26.00 -17.00     0.61547    
  26.00 -16.00     0.52421    
  26.00 -15.00     0.35298    
  26.00 -14.00     0.13367    
  26.00 -13.00    -0.82101E-01
  26.00 -12.00    -0.23990    
  26.00 -11.00    -0.30073    
  26.00 -10.00    -0.25437    
  26.00  -9.00    -0.12336    
  26.00  -8.00     0.43864E-01
  26.00  -7.00     0.18848    
  26.00  -6.00     0.26031    
  26.00  -5.00     0.23406    
  26.00  -4.00     0.11745    
  26.00  -3.00    -0.51490E-01
  26.00  -2.00    -0.21706    
  26.00  -1.00    -0.32420    
  26.00   0.00    -0.33649    
  26.00   1.00    -0.24804    
  26.00   2.00    -0.85272E-01
  26.00   3.00     0.10161    
  26.00   4.00     0.25471    
  26.00   5.00     0.32676    
  26.00   6.00     0.29577    
  26.00   7.00     0.17147    
  26.00   8.00    -0.81649E-02
  26.00   9.00    -0.18893    
  26.00  10.00    -0.31674    
  26.00  11.00    -0.35313    
  26.00  12.00    -0.28522    
  26.00  13.00    -0.12748    
  26.00  14.00     0.84577E-01
  26.00  15.00     0.30595    
  26.00  16.00     0.49510    
  26.00  17.00     0.62397    
  26.00  18.00     0.68250    
  26.00  19.00     0.67701    
  26.00  20.00     0.62412    
  26.00  21.00     0.54293    
  26.00  22.00     0.44866    
  26.00  23.00     0.34980    
  26.00  24.00     0.24906    
  26.00  25.00     0.14709    
  26.00  26.00     0.46596E-01
  26.00  27.00    -0.45226E-01
  26.00  28.00    -0.11734    
  26.00  29.00    -0.15826    
  26.00  30.00    -0.16075    
  26.00  31.00    -0.12546    
  26.00  32.00    -0.61749E-01
  26.00  33.00     0.15295E-01
  26.00  34.00     0.90629E-01
  26.00  35.00     0.15575    
  26.00  36.00     0.21314    
  26.00  37.00     0.27640    
  26.00  38.00     0.36543    
  26.00  39.00     0.49777    
  26.00  40.00     0.67893    
  26.00  41.00     0.89556    
  26.00  42.00      1.1139    
  26.00  43.00      1.2862    
  26.00  44.00      1.3618    
  26.00  45.00      1.3027    
  26.00  46.00      1.0959    
  26.00  47.00     0.76113    
  26.00  48.00     0.34903    
  26.00  49.00    -0.69494E-01
  26.00  50.00    -0.41992    
  26.00  51.00    -0.64248    
  26.00  52.00    -0.70709    
  26.00  53.00    -0.61991    
  26.00  54.00    -0.42049    
  26.00  55.00    -0.17026    
  26.00  56.00     0.64710E-01
  26.00  57.00     0.23086    
  26.00  58.00     0.29977    
  26.00  59.00     0.27262    
  26.00  60.00     0.17625    
  26.00  61.00     0.51793E-01
  26.00  62.00    -0.58610E-01
  26.00  63.00    -0.12461    
  26.00  64.00    -0.13537    
  26.00  65.00    -0.99784E-01
  26.00  66.00    -0.41273E-01
  26.00  67.00     0.11795E-01
  26.00  68.00     0.35939E-01
  26.00  69.00     0.20562E-01
  26.00  70.00    -0.30890E-01
  26.00  71.00    -0.10254    
  26.00  72.00    -0.17179    
  26.00  73.00    -0.21765    
  26.00  74.00    -0.22567    
  26.00  75.00    -0.19227    
  26.00  76.00    -0.12484    
  26.00  77.00    -0.35577E-01
  26.00  78.00     0.59258E-01
  26.00  79.00     0.14480    
  26.00  80.00     0.21350    
  26.00  81.00     0.25968    
  26.00  82.00     0.28368    
  26.00  83.00     0.28765    
  26.00  84.00     0.27436    
  26.00  85.00     0.24746    
  26.00  86.00     0.21239    
  26.00  87.00     0.17366    
  26.00  88.00     0.13927    
  26.00  89.00     0.11577    
  27.00 -89.00     0.49161    
  27.00 -88.00     0.37170    
  27.00 -87.00     0.18999    
  27.00 -86.00     0.47072E-02
  27.00 -85.00    -0.12292    
  27.00 -84.00    -0.14974    
  27.00 -83.00    -0.58646E-01
  27.00 -82.00     0.12584    
  27.00 -81.00     0.35906    
  27.00 -80.00     0.58055    
  27.00 -79.00     0.73270    
  27.00 -78.00     0.78424    
  27.00 -77.00     0.73269    
  27.00 -76.00     0.60630    
  27.00 -75.00     0.45401    
  27.00 -74.00     0.32633    
  27.00 -73.00     0.26001    
  27.00 -72.00     0.26656    
  27.00 -71.00     0.32881    
  27.00 -70.00     0.40764    
  27.00 -69.00     0.45742    
  27.00 -68.00     0.44242    
  27.00 -67.00     0.34904    
  27.00 -66.00     0.19083    
  27.00 -65.00     0.44560E-02
  27.00 -64.00    -0.16412    
  27.00 -63.00    -0.27399    
  27.00 -62.00    -0.30305    
  27.00 -61.00    -0.25573    
  27.00 -60.00    -0.16001    
  27.00 -59.00    -0.57621E-01
  27.00 -58.00     0.10677E-01
  27.00 -57.00     0.18850E-01
  27.00 -56.00    -0.36183E-01
  27.00 -55.00    -0.13365    
  27.00 -54.00    -0.23780    
  27.00 -53.00    -0.30985    
  27.00 -52.00    -0.32221    
  27.00 -51.00    -0.26718    
  27.00 -50.00    -0.15881    
  27.00 -49.00    -0.28061E-01
  27.00 -48.00     0.88882E-01
  27.00 -47.00     0.16212    
  27.00 -46.00     0.17739    
  27.00 -45.00     0.13884    
  27.00 -44.00     0.65827E-01
  27.00 -43.00    -0.16270E-01
  27.00 -42.00    -0.85284E-01
  27.00 -41.00    -0.12984    
  27.00 -40.00    -0.15111    
  27.00 -39.00    -0.15898    
  27.00 -38.00    -0.16423    
  27.00 -37.00    -0.17035    
  27.00 -36.00    -0.16863    
  27.00 -35.00    -0.13919    
  27.00 -34.00    -0.57995E-01
  27.00 -33.00     0.92550E-01
  27.00 -32.00     0.31331    
  27.00 -31.00     0.58286    
  27.00 -30.00     0.85956    
  27.00 -29.00      1.0914    
  27.00 -28.00      1.2308    
  27.00 -27.00      1.2504    
  27.00 -26.00      1.1528    
  27.00 -25.00     0.97216    
  27.00 -24.00     0.76509    
  27.00 -23.00     0.59414    
  27.00 -22.00     0.50818    
  27.00 -21.00     0.52670    
  27.00 -20.00     0.63285    
  27.00 -19.00     0.77820    
  27.00 -18.00     0.89785    
  27.00 -17.00     0.93129    
  27.00 -16.00     0.84228    
  27.00 -15.00     0.63131    
  27.00 -14.00     0.33652    
  27.00 -13.00     0.22441E-01
  27.00 -12.00    -0.23963    
  27.00 -11.00    -0.39353    
  27.00 -10.00    -0.41521    
  27.00  -9.00    -0.31944    
  27.00  -8.00    -0.15412    
  27.00  -7.00     0.15815E-01
  27.00  -6.00     0.12943    
  27.00  -5.00     0.14904    
  27.00  -4.00     0.71199E-01
  27.00  -3.00    -0.73686E-01
  27.00  -2.00    -0.23296    
  27.00  -1.00    -0.35028    
  27.00   0.00    -0.38491    
  27.00   1.00    -0.32524    
  27.00   2.00    -0.19234    
  27.00   3.00    -0.32370E-01
  27.00   4.00     0.99231E-01
  27.00   5.00     0.15647    
  27.00   6.00     0.11820    
  27.00   7.00    -0.48234E-02
  27.00   8.00    -0.17323    
  27.00   9.00    -0.33149    
  27.00  10.00    -0.42520    
  27.00  11.00    -0.41757    
  27.00  12.00    -0.30006    
  27.00  13.00    -0.94024E-01
  27.00  14.00     0.15649    
  27.00  15.00     0.39811    
  27.00  16.00     0.58307    
  27.00  17.00     0.68107    
  27.00  18.00     0.68481    
  27.00  19.00     0.60821    
  27.00  20.00     0.47903    
  27.00  21.00     0.32877    
  27.00  22.00     0.18379    
  27.00  23.00     0.60124E-01
  27.00  24.00    -0.36872E-01
  27.00  25.00    -0.10901    
  27.00  26.00    -0.16012    
  27.00  27.00    -0.19173    
  27.00  28.00    -0.20159    
  27.00  29.00    -0.18511    
  27.00  30.00    -0.13898    
  27.00  31.00    -0.64721E-01
  27.00  32.00     0.29842E-01
  27.00  33.00     0.13211    
  27.00  34.00     0.22912    
  27.00  35.00     0.31295    
  27.00  36.00     0.38477    
  27.00  37.00     0.45538    
  27.00  38.00     0.54137    
  27.00  39.00     0.65767    
  27.00  40.00     0.80912    
  27.00  41.00     0.98410    
  27.00  42.00      1.1533    
  27.00  43.00      1.2749    
  27.00  44.00      1.3053    
  27.00  45.00      1.2123    
  27.00  46.00     0.98735    
  27.00  47.00     0.65156    
  27.00  48.00     0.25414    
  27.00  49.00    -0.13768    
  27.00  50.00    -0.45481    
  27.00  51.00    -0.64331    
  27.00  52.00    -0.67840    
  27.00  53.00    -0.57012    
  27.00  54.00    -0.36027    
  27.00  55.00    -0.11047    
  27.00  56.00     0.11441    
  27.00  57.00     0.26306    
  27.00  58.00     0.30958    
  27.00  59.00     0.25763    
  27.00  60.00     0.13604    
  27.00  61.00    -0.12614E-01
  27.00  62.00    -0.14526    
  27.00  63.00    -0.23092    
  27.00  64.00    -0.25806    
  27.00  65.00    -0.23472    
  27.00  66.00    -0.18328    
  27.00  67.00    -0.13105    
  27.00  68.00    -0.10063    
  27.00  69.00    -0.10253    
  27.00  70.00    -0.13403    
  27.00  71.00    -0.18068    
  27.00  72.00    -0.22291    
  27.00  73.00    -0.24245    
  27.00  74.00    -0.22779    
  27.00  75.00    -0.17756    
  27.00  76.00    -0.10012    
  27.00  77.00    -0.73943E-02
  27.00  78.00     0.86139E-01
  27.00  79.00     0.16797    
  27.00  80.00     0.23292    
  27.00  81.00     0.27724    
  27.00  82.00     0.30208    
  27.00  83.00     0.30919    
  27.00  84.00     0.29997    
  27.00  85.00     0.27570    
  27.00  86.00     0.24076    
  27.00  87.00     0.19861    
  27.00  88.00     0.15740    
  27.00  89.00     0.12505    
  28.00 -89.00     0.49235    
  28.00 -88.00     0.37303    
  28.00 -87.00     0.19186    
  28.00 -86.00     0.69435E-02
  28.00 -85.00    -0.12069    
  28.00 -84.00    -0.14785    
  28.00 -83.00    -0.58069E-01
  28.00 -82.00     0.12458    
  28.00 -81.00     0.35479    
  28.00 -80.00     0.57264    
  28.00 -79.00     0.72131    
  28.00 -78.00     0.77049    
  28.00 -77.00     0.71910    
  28.00 -76.00     0.59647    
  28.00 -75.00     0.45184    
  28.00 -74.00     0.33540    
  28.00 -73.00     0.28256    
  28.00 -72.00     0.30241    
  28.00 -71.00     0.37512    
  28.00 -70.00     0.45858    
  28.00 -69.00     0.50531    
  28.00 -68.00     0.47889    
  28.00 -67.00     0.36655    
  28.00 -66.00     0.18440    
  28.00 -65.00    -0.27419E-01
  28.00 -64.00    -0.21888    
  28.00 -63.00    -0.34549    
  28.00 -62.00    -0.38253    
  28.00 -61.00    -0.33327    
  28.00 -60.00    -0.22608    
  28.00 -59.00    -0.10445    
  28.00 -58.00    -0.11739E-01
  28.00 -57.00     0.23000E-01
  28.00 -56.00    -0.60137E-02
  28.00 -55.00    -0.80533E-01
  28.00 -54.00    -0.16646    
  28.00 -53.00    -0.22644    
  28.00 -52.00    -0.23361    
  28.00 -51.00    -0.18074    
  28.00 -50.00    -0.81924E-01
  28.00 -49.00     0.32440E-01
  28.00 -48.00     0.12739    
  28.00 -47.00     0.17489    
  28.00 -46.00     0.16318    
  28.00 -45.00     0.99190E-01
  28.00 -44.00     0.47455E-02
  28.00 -43.00    -0.92932E-01
  28.00 -42.00    -0.17100    
  28.00 -41.00    -0.21860    
  28.00 -40.00    -0.23841    
  28.00 -39.00    -0.24246    
  28.00 -38.00    -0.24359    
  28.00 -37.00    -0.24681    
  28.00 -36.00    -0.24418    
  28.00 -35.00    -0.21585    
  28.00 -34.00    -0.13745    
  28.00 -33.00     0.87613E-02
  28.00 -32.00     0.22326    
  28.00 -31.00     0.48361    
  28.00 -30.00     0.74683    
  28.00 -29.00     0.96002    
  28.00 -28.00      1.0762    
  28.00 -27.00      1.0705    
  28.00 -26.00     0.95026    
  28.00 -25.00     0.75636    
  28.00 -24.00     0.55250    
  28.00 -23.00     0.40691    
  28.00 -22.00     0.37098    
  28.00 -21.00     0.46203    
  28.00 -20.00     0.65603    
  28.00 -19.00     0.89312    
  28.00 -18.00      1.0947    
  28.00 -17.00      1.1869    
  28.00 -16.00      1.1236    
  28.00 -15.00     0.90095    
  28.00 -14.00     0.55952    
  28.00 -13.00     0.17246    
  28.00 -12.00    -0.17584    
  28.00 -11.00    -0.41451    
  28.00 -10.00    -0.50626    
  28.00  -9.00    -0.45674    
  28.00  -8.00    -0.31032    
  28.00  -7.00    -0.13419    
  28.00  -6.00     0.38978E-02
  28.00  -5.00     0.56891E-01
  28.00  -4.00     0.11895E-01
  28.00  -3.00    -0.10825    
  28.00  -2.00    -0.25524    
  28.00  -1.00    -0.37362    
  28.00   0.00    -0.42058    
  28.00   1.00    -0.38064    
  28.00   2.00    -0.27039    
  28.00   3.00    -0.13187    
  28.00   4.00    -0.17245E-01
  28.00   5.00     0.29820E-01
  28.00   6.00    -0.10220E-01
  28.00   7.00    -0.12551    
  28.00   8.00    -0.27616    
  28.00   9.00    -0.40693    
  28.00  10.00    -0.46503    
  28.00  11.00    -0.41704    
  28.00  12.00    -0.25962    
  28.00  13.00    -0.20689E-01
  28.00  14.00     0.24884    
  28.00  15.00     0.48990    
  28.00  16.00     0.65173    
  28.00  17.00     0.70487    
  28.00  18.00     0.64698    
  28.00  19.00     0.50055    
  28.00  20.00     0.30388    
  28.00  21.00     0.98963E-01
  28.00  22.00    -0.79537E-01
  28.00  23.00    -0.21111    
  28.00  24.00    -0.29050    
  28.00  25.00    -0.32382    
  28.00  26.00    -0.32210    
  28.00  27.00    -0.29516    
  28.00  28.00    -0.24810    
  28.00  29.00    -0.18143    
  28.00  30.00    -0.93996E-01
  28.00  31.00     0.13214E-01
  28.00  32.00     0.13447    
  28.00  33.00     0.25953    
  28.00  34.00     0.37670    
  28.00  35.00     0.47754    
  28.00  36.00     0.56083    
  28.00  37.00     0.63387    
  28.00  38.00     0.70979    
  28.00  39.00     0.80148    
  28.00  40.00     0.91414    
  28.00  41.00      1.0394    
  28.00  42.00      1.1538    
  28.00  43.00      1.2227    
  28.00  44.00      1.2099    
  28.00  45.00      1.0895    
  28.00  46.00     0.85611    
  28.00  47.00     0.53131    
  28.00  48.00     0.16138    
  28.00  49.00    -0.19173    
  28.00  50.00    -0.46564    
  28.00  51.00    -0.61311    
  28.00  52.00    -0.61500    
  28.00  53.00    -0.48501    
  28.00  54.00    -0.26661    
  28.00  55.00    -0.20706E-01
  28.00  56.00     0.18994    
  28.00  57.00     0.31706    
  28.00  58.00     0.33788    
  28.00  59.00     0.25879    
  28.00  60.00     0.11058    
  28.00  61.00    -0.62948E-01
  28.00  62.00    -0.21814    
  28.00  63.00    -0.32373    
  28.00  64.00    -0.36779    
  28.00  65.00    -0.35765    
  28.00  66.00    -0.31471    
  28.00  67.00    -0.26516    
  28.00  68.00    -0.23058    
  28.00  69.00    -0.22124    
  28.00  70.00    -0.23500    
  28.00  71.00    -0.25875    
  28.00  72.00    -0.27582    
  28.00  73.00    -0.27060    
  28.00  74.00    -0.23450    
  28.00  75.00    -0.16833    
  28.00  76.00    -0.81337E-01
  28.00  77.00     0.14770E-01
  28.00  78.00     0.10726    
  28.00  79.00     0.18598    
  28.00  80.00     0.24796    
  28.00  81.00     0.29130    
  28.00  82.00     0.31784    
  28.00  83.00     0.32887    
  28.00  84.00     0.32434    
  28.00  85.00     0.30322    
  28.00  86.00     0.26873    
  28.00  87.00     0.22339    
  28.00  88.00     0.17545    
  28.00  89.00     0.13430    
  29.00 -89.00     0.49311    
  29.00 -88.00     0.37447    
