   7.00 -24.00     -1.2989    
   7.00 -23.00     -1.4478    
   7.00 -22.00     -1.6089    
   7.00 -21.00     -1.7416    
   7.00 -20.00     -1.8127    
   7.00 -19.00     -1.8051    
   7.00 -18.00     -1.7220    
   7.00 -17.00     -1.5848    
   7.00 -16.00     -1.4274    
   7.00 -15.00     -1.2857    
   7.00 -14.00     -1.1884    
   7.00 -13.00     -1.1491    
   7.00 -12.00     -1.1636    
   7.00 -11.00     -1.2119    
   7.00 -10.00     -1.2649    
   7.00  -9.00     -1.2928    
   7.00  -8.00     -1.2742    
   7.00  -7.00     -1.2016    
   7.00  -6.00     -1.0829    
   7.00  -5.00    -0.93904    
   7.00  -4.00    -0.79763    
   7.00  -3.00    -0.68483    
   7.00  -2.00    -0.61849    
   7.00  -1.00    -0.60358    
   7.00   0.00    -0.63157    
   7.00   1.00    -0.68330    
   7.00   2.00    -0.73460    
   7.00   3.00    -0.76270    
   7.00   4.00    -0.75163    
   7.00   5.00    -0.69523    
   7.00   6.00    -0.59727    
   7.00   7.00    -0.46899    
   7.00   8.00    -0.32523    
   7.00   9.00    -0.18043    
   7.00  10.00    -0.45923E-01
   7.00  11.00     0.70917E-01
   7.00  12.00     0.16582    
   7.00  13.00     0.23568    
   7.00  14.00     0.27670    
   7.00  15.00     0.28362    
   7.00  16.00     0.25055    
   7.00  17.00     0.17314    
   7.00  18.00     0.51491E-01
   7.00  19.00    -0.10756    
   7.00  20.00    -0.28978    
   7.00  21.00    -0.47511    
   7.00  22.00    -0.64128    
   7.00  23.00    -0.76871    
   7.00  24.00    -0.84502    
   7.00  25.00    -0.86799    
   7.00  26.00    -0.84575    
   7.00  27.00    -0.79410    
   7.00  28.00    -0.73170    
   7.00  29.00    -0.67445    
   7.00  30.00    -0.63098    
   7.00  31.00    -0.60043    
   7.00  32.00    -0.57345    
   7.00  33.00    -0.53596    
   7.00  34.00    -0.47460    
   7.00  35.00    -0.38198    
   7.00  36.00    -0.26007    
   7.00  37.00    -0.12070    
   7.00  38.00     0.17262E-01
   7.00  39.00     0.13295    
   7.00  40.00     0.20943    
   7.00  41.00     0.23842    
   7.00  42.00     0.22276    
   7.00  43.00     0.17525    
   7.00  44.00     0.11520    
   7.00  45.00     0.62806E-01
   7.00  46.00     0.34313E-01
   7.00  47.00     0.37762E-01
   7.00  48.00     0.72630E-01
   7.00  49.00     0.13089    
   7.00  50.00     0.20082    
   7.00  51.00     0.27071    
   7.00  52.00     0.33180    
   7.00  53.00     0.37919    
   7.00  54.00     0.41116    
   7.00  55.00     0.42651    
   7.00  56.00     0.42229    
   7.00  57.00     0.39254    
   7.00  58.00     0.32915    
   7.00  59.00     0.22453    
   7.00  60.00     0.76145E-01
   7.00  61.00    -0.11047    
   7.00  62.00    -0.31935    
   7.00  63.00    -0.52485    
   7.00  64.00    -0.69665    
   7.00  65.00    -0.80544    
   7.00  66.00    -0.83079    
   7.00  67.00    -0.76649    
   7.00  68.00    -0.62242    
   7.00  69.00    -0.42426    
   7.00  70.00    -0.20646    
   7.00  71.00    -0.42246E-02
   7.00  72.00     0.15258    
   7.00  73.00     0.24736    
   7.00  74.00     0.27933    
   7.00  75.00     0.26162    
   7.00  76.00     0.21548    
   7.00  77.00     0.16556    
   7.00  78.00     0.13105    
   7.00  79.00     0.12278    
   7.00  80.00     0.13974    
   7.00  81.00     0.17433    
   7.00  82.00     0.21357    
   7.00  83.00     0.24617    
   7.00  84.00     0.26322    
   7.00  85.00     0.26497    
   7.00  86.00     0.25578    
   7.00  87.00     0.24362    
   7.00  88.00     0.23722    
   7.00  89.00     0.24113    
   8.00 -89.00     0.63747    
   8.00 -88.00     0.45094    
   8.00 -87.00     0.30920    
   8.00 -86.00     0.24683    
   8.00 -85.00     0.27970    
   8.00 -84.00     0.39475    
   8.00 -83.00     0.56017    
   8.00 -82.00     0.72544    
   8.00 -81.00     0.84678    
   8.00 -80.00     0.89119    
   8.00 -79.00     0.85016    
   8.00 -78.00     0.74029    
   8.00 -77.00     0.59764    
   8.00 -76.00     0.46500    
   8.00 -75.00     0.38030    
   8.00 -74.00     0.36195    
   8.00 -73.00     0.40746    
   8.00 -72.00     0.49108    
   8.00 -71.00     0.57598    
   8.00 -70.00     0.62382    
   8.00 -69.00     0.61018    
   8.00 -68.00     0.52997    
   8.00 -67.00     0.40007    
   8.00 -66.00     0.25358    
   8.00 -65.00     0.12868    
   8.00 -64.00     0.56846E-01
   8.00 -63.00     0.53046E-01
   8.00 -62.00     0.11137    
   8.00 -61.00     0.20712    
   8.00 -60.00     0.30593    
   8.00 -59.00     0.37412    
   8.00 -58.00     0.38989    
   8.00 -57.00     0.34909    
   8.00 -56.00     0.26586    
   8.00 -55.00     0.16680    
   8.00 -54.00     0.80971E-01
   8.00 -53.00     0.29495E-01
   8.00 -52.00     0.18086E-01
   8.00 -51.00     0.34433E-01
   8.00 -50.00     0.51960E-01
   8.00 -49.00     0.38129E-01
   8.00 -48.00    -0.34820E-01
   8.00 -47.00    -0.18084    
   8.00 -46.00    -0.39525    
   8.00 -45.00    -0.65539    
   8.00 -44.00    -0.92729    
   8.00 -43.00     -1.1753    
   8.00 -42.00     -1.3720    
   8.00 -41.00     -1.5052    
   8.00 -40.00     -1.5801    
   8.00 -39.00     -1.6157    
   8.00 -38.00     -1.6372    
   8.00 -37.00     -1.6662    
   8.00 -36.00     -1.7137    
   8.00 -35.00     -1.7755    
   8.00 -34.00     -1.8340    
   8.00 -33.00     -1.8650    
   8.00 -32.00     -1.8464    
   8.00 -31.00     -1.7668    
   8.00 -30.00     -1.6321    
   8.00 -29.00     -1.4650    
   8.00 -28.00     -1.3007    
   8.00 -27.00     -1.1773    
   8.00 -26.00     -1.1251    
   8.00 -25.00     -1.1578    
   8.00 -24.00     -1.2676    
   8.00 -23.00     -1.4267    
   8.00 -22.00     -1.5940    
   8.00 -21.00     -1.7260    
   8.00 -20.00     -1.7881    
   8.00 -19.00     -1.7638    
   8.00 -18.00     -1.6584    
   8.00 -17.00     -1.4974    
   8.00 -16.00     -1.3190    
   8.00 -15.00     -1.1636    
   8.00 -14.00     -1.0629    
   8.00 -13.00     -1.0320    
   8.00 -12.00     -1.0660    
   8.00 -11.00     -1.1426    
   8.00 -10.00     -1.2292    
   8.00  -9.00     -1.2922    
   8.00  -8.00     -1.3066    
   8.00  -7.00     -1.2624    
   8.00  -6.00     -1.1661    
   8.00  -5.00     -1.0382    
   8.00  -4.00    -0.90655    
   8.00  -3.00    -0.79772    
   8.00  -2.00    -0.72995    
   8.00  -1.00    -0.70850    
   8.00   0.00    -0.72508    
   8.00   1.00    -0.76110    
   8.00   2.00    -0.79357    
   8.00   3.00    -0.80161    
   8.00   4.00    -0.77171    
   8.00   5.00    -0.70040    
   8.00   6.00    -0.59368    
   8.00   7.00    -0.46404    
   8.00   8.00    -0.32613    
   8.00   9.00    -0.19271    
   8.00  10.00    -0.72327E-01
   8.00  11.00     0.30969E-01
   8.00  12.00     0.11588    
   8.00  13.00     0.18123    
   8.00  14.00     0.22368    
   8.00  15.00     0.23699    
   8.00  16.00     0.21319    
   8.00  17.00     0.14561    
   8.00  18.00     0.32475E-01
   8.00  19.00    -0.12018    
   8.00  20.00    -0.29760    
   8.00  21.00    -0.47815    
   8.00  22.00    -0.63759    
   8.00  23.00    -0.75467    
   8.00  24.00    -0.81651    
   8.00  25.00    -0.82193    
   8.00  26.00    -0.78161    
   8.00  27.00    -0.71490    
   8.00  28.00    -0.64415    
   8.00  29.00    -0.58810    
   8.00  30.00    -0.55656    
   8.00  31.00    -0.54775    
   8.00  32.00    -0.54943    
   8.00  33.00    -0.54326    
   8.00  34.00    -0.51108    
   8.00  35.00    -0.44126    
   8.00  36.00    -0.33294    
   8.00  37.00    -0.19698    
   8.00  38.00    -0.53185E-01
   8.00  39.00     0.75155E-01
   8.00  40.00     0.16784    
   8.00  41.00     0.21338    
   8.00  42.00     0.21193    
   8.00  43.00     0.17485    
   8.00  44.00     0.12107    
   8.00  45.00     0.71478E-01
   8.00  46.00     0.43565E-01
   8.00  47.00     0.46808E-01
   8.00  48.00     0.81840E-01
   8.00  49.00     0.14124    
   8.00  50.00     0.21336    
   8.00  51.00     0.28597    
   8.00  52.00     0.34954    
   8.00  53.00     0.39820    
   8.00  54.00     0.42947    
   8.00  55.00     0.44169    
   8.00  56.00     0.43182    
   8.00  57.00     0.39426    
   8.00  58.00     0.32163    
   8.00  59.00     0.20742    
   8.00  60.00     0.50223E-01
   8.00  61.00    -0.14330    
   8.00  62.00    -0.35626    
   8.00  63.00    -0.56257    
   8.00  64.00    -0.73189    
   8.00  65.00    -0.83538    
   8.00  66.00    -0.85353    
   8.00  67.00    -0.78129    
   8.00  68.00    -0.62962    
   8.00  69.00    -0.42505    
   8.00  70.00    -0.20250    
   8.00  71.00     0.28723E-02
   8.00  72.00     0.16159    
   8.00  73.00     0.25772    
   8.00  74.00     0.29109    
   8.00  75.00     0.27525    
   8.00  76.00     0.23141    
   8.00  77.00     0.18399    
   8.00  78.00     0.15155    
   8.00  79.00     0.14426    
   8.00  80.00     0.16065    
   8.00  81.00     0.19294    
   8.00  82.00     0.22848    
   8.00  83.00     0.25653    
   8.00  84.00     0.26900    
   8.00  85.00     0.26660    
   8.00  86.00     0.25462    
   8.00  87.00     0.24109    
   8.00  88.00     0.23471    
   8.00  89.00     0.23965    
   9.00 -89.00     0.63879    
   9.00 -88.00     0.45313    
   9.00 -87.00     0.31198    
   9.00 -86.00     0.25027    
   9.00 -85.00     0.28410    
   9.00 -84.00     0.40076    
   9.00 -83.00     0.56796    
   9.00 -82.00     0.73542    
   9.00 -81.00     0.85832    
   9.00 -80.00     0.90303    
   9.00 -79.00     0.86023    
   9.00 -78.00     0.74651    
   9.00 -77.00     0.59817    
   9.00 -76.00     0.45919    
   9.00 -75.00     0.36910    
   9.00 -74.00     0.34798    
   9.00 -73.00     0.39451    
   9.00 -72.00     0.48337    
   9.00 -71.00     0.57698    
   9.00 -70.00     0.63510    
   9.00 -69.00     0.63069    
   9.00 -68.00     0.55580    
   9.00 -67.00     0.42512    
   9.00 -66.00     0.27082    
   9.00 -65.00     0.13149    
   9.00 -64.00     0.41205E-01
   9.00 -63.00     0.18002E-01
   9.00 -62.00     0.59714E-01
   9.00 -61.00     0.14478    
   9.00 -60.00     0.24064    
   9.00 -59.00     0.31362    
   9.00 -58.00     0.34009    
   9.00 -57.00     0.31286    
   9.00 -56.00     0.24238    
   9.00 -55.00     0.15205    
   9.00 -54.00     0.68952E-01
   9.00 -53.00     0.13822E-01
   9.00 -52.00    -0.61669E-02
   9.00 -51.00    -0.67004E-03
   9.00 -50.00     0.69219E-02
   9.00 -49.00    -0.12942E-01
   9.00 -48.00    -0.86218E-01
   9.00 -47.00    -0.22641    
   9.00 -46.00    -0.42992    
   9.00 -45.00    -0.67649    
   9.00 -44.00    -0.93507    
   9.00 -43.00     -1.1728    
   9.00 -42.00     -1.3643    
   9.00 -41.00     -1.4982    
   9.00 -40.00     -1.5792    
   9.00 -39.00     -1.6245    
   9.00 -38.00     -1.6568    
   9.00 -37.00     -1.6952    
   9.00 -36.00     -1.7481    
   9.00 -35.00     -1.8097    
   9.00 -34.00     -1.8622    
   9.00 -33.00     -1.8818    
   9.00 -32.00     -1.8482    
   9.00 -31.00     -1.7526    
   9.00 -30.00     -1.6034    
   9.00 -29.00     -1.4256    
   9.00 -28.00     -1.2562    
   9.00 -27.00     -1.1336    
   9.00 -26.00     -1.0875    
   9.00 -25.00     -1.1296    
   9.00 -24.00     -1.2492    
   9.00 -23.00     -1.4155    
   9.00 -22.00     -1.5845    
   9.00 -21.00     -1.7109    
   9.00 -20.00     -1.7600    
   9.00 -19.00     -1.7163    
   9.00 -18.00     -1.5879    
   9.00 -17.00     -1.4041    
   9.00 -16.00     -1.2069    
   9.00 -15.00     -1.0399    
   9.00 -14.00    -0.93725    
   9.00 -13.00    -0.91448    
   9.00 -12.00    -0.96593    
   9.00 -11.00     -1.0672    
   9.00 -10.00     -1.1829    
   9.00  -9.00     -1.2767    
   9.00  -8.00     -1.3210    
   9.00  -7.00     -1.3039    
   9.00  -6.00     -1.2307    
   9.00  -5.00     -1.1212    
   9.00  -4.00     -1.0027    
   9.00  -3.00    -0.90106    
   9.00  -2.00    -0.83412    
   9.00  -1.00    -0.80669    
   9.00   0.00    -0.81053    
   9.00   1.00    -0.82791    
   9.00   2.00    -0.83765    
   9.00   3.00    -0.82161    
   9.00   4.00    -0.76962    
   9.00   5.00    -0.68148    
   9.00   6.00    -0.56582    
   9.00   7.00    -0.43640    
   9.00   8.00    -0.30753    
   9.00   9.00    -0.19008    
   9.00  10.00    -0.89567E-01
   9.00  11.00    -0.66112E-02
   9.00  12.00     0.60560E-01
   9.00  13.00     0.11285    
   9.00  14.00     0.14775    
   9.00  15.00     0.15861    
   9.00  16.00     0.13639    
   9.00  17.00     0.73245E-01
   9.00  18.00    -0.33319E-01
   9.00  19.00    -0.17715    
   9.00  20.00    -0.34263    
   9.00  21.00    -0.50693    
   9.00  22.00    -0.64490    
   9.00  23.00    -0.73545    
   9.00  24.00    -0.76731    
   9.00  25.00    -0.74242    
   9.00  26.00    -0.67571    
   9.00  27.00    -0.59105    
   9.00  28.00    -0.51452    
   9.00  29.00    -0.46694    
   9.00  30.00    -0.45782    
   9.00  31.00    -0.48269    
   9.00  32.00    -0.52464    
   9.00  33.00    -0.55953    
   9.00  34.00    -0.56352    
   9.00  35.00    -0.52040    
   9.00  36.00    -0.42667    
   9.00  37.00    -0.29276    
   9.00  38.00    -0.14015    
   9.00  39.00     0.47479E-02
   9.00  40.00     0.11794    
   9.00  41.00     0.18433    
   9.00  42.00     0.20126    
   9.00  43.00     0.17849    
   9.00  44.00     0.13449    
   9.00  45.00     0.90633E-01
   9.00  46.00     0.65363E-01
   9.00  47.00     0.69316E-01
   9.00  48.00     0.10396    
   9.00  49.00     0.16237    
   9.00  50.00     0.23299    
   9.00  51.00     0.30341    
   9.00  52.00     0.36376    
   9.00  53.00     0.40797    
   9.00  54.00     0.43345    
   9.00  55.00     0.43873    
   9.00  56.00     0.42117    
   9.00  57.00     0.37573    
   9.00  58.00     0.29574    
   9.00  59.00     0.17544    
   9.00  60.00     0.14043E-01
   9.00  61.00    -0.18126    
   9.00  62.00    -0.39327    
   9.00  63.00    -0.59601    
   9.00  64.00    -0.75949    
   9.00  65.00    -0.85557    
   9.00  66.00    -0.86566    
   9.00  67.00    -0.78564    
   9.00  68.00    -0.62737    
   9.00  69.00    -0.41783    
   9.00  70.00    -0.19209    
   9.00  71.00     0.14963E-01
   9.00  72.00     0.17447    
   9.00  73.00     0.27119    
   9.00  74.00     0.30552    
   9.00  75.00     0.29136    
   9.00  76.00     0.24972    
   9.00  77.00     0.20470    
   9.00  78.00     0.17413    
   9.00  79.00     0.16752    
   9.00  80.00     0.18295    
   9.00  81.00     0.21253    
   9.00  82.00     0.24397    
   9.00  83.00     0.26717    
   9.00  84.00     0.27485    
   9.00  85.00     0.26818    
   9.00  86.00     0.25338    
   9.00  87.00     0.23851    
   9.00  88.00     0.23216    
   9.00  89.00     0.23817    
  10.00 -89.00     0.64017    
  10.00 -88.00     0.45542    
  10.00 -87.00     0.31487    
  10.00 -86.00     0.25379    
  10.00 -85.00     0.28847    
  10.00 -84.00     0.40656    
  10.00 -83.00     0.57524    
  10.00 -82.00     0.74465    
  10.00 -81.00     0.86880    
  10.00 -80.00     0.91350    
  10.00 -79.00     0.86863    
  10.00 -78.00     0.75076    
  10.00 -77.00     0.59644    
  10.00 -76.00     0.45084    
  10.00 -75.00     0.35508    
  10.00 -74.00     0.33096    
  10.00 -73.00     0.37831    
  10.00 -72.00     0.47229    
  10.00 -71.00     0.57451    
  10.00 -70.00     0.64283    
  10.00 -69.00     0.64749    
  10.00 -68.00     0.57761    
  10.00 -67.00     0.44565    
  10.00 -66.00     0.28275    
  10.00 -65.00     0.12802    
  10.00 -64.00     0.18133E-01
  10.00 -63.00    -0.25637E-01
  10.00 -62.00    -0.15740E-02
  10.00 -61.00     0.72048E-01
  10.00 -60.00     0.16452    
  10.00 -59.00     0.24219    
  10.00 -58.00     0.27955    
  10.00 -57.00     0.26623    
  10.00 -56.00     0.20882    
  10.00 -55.00     0.12745    
  10.00 -54.00     0.47218E-01
  10.00 -53.00    -0.11392E-01
  10.00 -52.00    -0.39518E-01
  10.00 -51.00    -0.43862E-01
  10.00 -50.00    -0.44344E-01
  10.00 -49.00    -0.67334E-01
  10.00 -48.00    -0.13694    
  10.00 -47.00    -0.26640    
  10.00 -46.00    -0.45356    
  10.00 -45.00    -0.68108    
  10.00 -44.00    -0.92134    
  10.00 -43.00     -1.1447    
  10.00 -42.00     -1.3282    
  10.00 -41.00     -1.4612    
  10.00 -40.00     -1.5477    
  10.00 -39.00     -1.6031    
  10.00 -38.00     -1.6470    
  10.00 -37.00     -1.6959    
  10.00 -36.00     -1.7555    
  10.00 -35.00     -1.8187    
  10.00 -34.00     -1.8676    
  10.00 -33.00     -1.8795    
  10.00 -32.00     -1.8359    
  10.00 -31.00     -1.7307    
  10.00 -30.00     -1.5743    
  10.00 -29.00     -1.3938    
  10.00 -28.00     -1.2265    
  10.00 -27.00     -1.1106    
  10.00 -26.00     -1.0740    
  10.00 -25.00     -1.1260    
  10.00 -24.00     -1.2534    
  10.00 -23.00     -1.4228    
  10.00 -22.00     -1.5886    
  10.00 -21.00     -1.7052    
  10.00 -20.00     -1.7384    
  10.00 -19.00     -1.6750    
  10.00 -18.00     -1.5260    
  10.00 -17.00     -1.3234    
  10.00 -16.00     -1.1123    
  10.00 -15.00    -0.93827    
  10.00 -14.00    -0.83614    
  10.00 -13.00    -0.82133    
  10.00 -12.00    -0.88697    
  10.00 -11.00     -1.0070    
  10.00 -10.00     -1.1441    
  10.00  -9.00     -1.2603    
  10.00  -8.00     -1.3269    
  10.00  -7.00     -1.3310    
  10.00  -6.00     -1.2774    
  10.00  -5.00     -1.1851    
  10.00  -4.00     -1.0800    
  10.00  -3.00    -0.98712    
  10.00  -2.00    -0.92280    
  10.00  -1.00    -0.89092    
  10.00   0.00    -0.88306    
  10.00   1.00    -0.88243    
  10.00   2.00    -0.86996    
  10.00   3.00    -0.83060    
  10.00   4.00    -0.75772    
  10.00   5.00    -0.65441    
  10.00   6.00    -0.53166    
  10.00   7.00    -0.40416    
  10.00   8.00    -0.28555    
  10.00   9.00    -0.18468    
  10.00  10.00    -0.10420    
  10.00  11.00    -0.41765E-01
  10.00  12.00     0.68464E-02
  10.00  13.00     0.44039E-01
  10.00  14.00     0.67792E-01
  10.00  15.00     0.71273E-01
  10.00  16.00     0.45040E-01
  10.00  17.00    -0.18846E-01
  10.00  18.00    -0.12226    
  10.00  19.00    -0.25776    
  10.00  20.00    -0.40819    
  10.00  21.00    -0.54948    
  10.00  22.00    -0.65641    
  10.00  23.00    -0.70946    
  10.00  24.00    -0.70080    
  10.00  25.00    -0.63731    
  10.00  26.00    -0.53955    
  10.00  27.00    -0.43661    
  10.00  28.00    -0.35818    
  10.00  29.00    -0.32620    
  10.00  30.00    -0.34841    
  10.00  31.00    -0.41595    
  10.00  32.00    -0.50569    
  10.00  33.00    -0.58666    
  10.00  34.00    -0.62881    
  10.00  35.00    -0.61153    
  10.00  36.00    -0.52926    
  10.00  37.00    -0.39292    
  10.00  38.00    -0.22652    
  10.00  39.00    -0.60328E-01
  10.00  40.00     0.77487E-01
  10.00  41.00     0.16809    
  10.00  42.00     0.20611    
  10.00  43.00     0.19987    
  10.00  44.00     0.16746    
  10.00  45.00     0.13076    
  10.00  46.00     0.10889    
  10.00  47.00     0.11338    
  10.00  48.00     0.14620    
  10.00  49.00     0.20075    
  10.00  50.00     0.26559    
  10.00  51.00     0.32837    
  10.00  52.00     0.37943    
  10.00  53.00     0.41318    
  10.00  54.00     0.42761    
  10.00  55.00     0.42212    
  10.00  56.00     0.39490    
  10.00  57.00     0.34167    
  10.00  58.00     0.25635    
  10.00  59.00     0.13358    
  10.00  60.00    -0.27381E-01
  10.00  61.00    -0.21944    
  10.00  62.00    -0.42571    
  10.00  63.00    -0.62085    
  10.00  64.00    -0.77561    
  10.00  65.00    -0.86269    
  10.00  66.00    -0.86439    
  10.00  67.00    -0.77729    
  10.00  68.00    -0.61387    
  10.00  69.00    -0.40121    
  10.00  70.00    -0.17418    
  10.00  71.00     0.32831E-01
  10.00  72.00     0.19178    
  10.00  73.00     0.28815    
  10.00  74.00     0.32286    
  10.00  75.00     0.31006    
  10.00  76.00     0.27045    
  10.00  77.00     0.22765    
  10.00  78.00     0.19874    
  10.00  79.00     0.19247    
  10.00  80.00     0.20655    
  10.00  81.00     0.23300    
  10.00  82.00     0.25999    
  10.00  83.00     0.27803    
  10.00  84.00     0.28072    
  10.00  85.00     0.26970    
  10.00  86.00     0.25205    
  10.00  87.00     0.23587    
  10.00  88.00     0.22959    
  10.00  89.00     0.23668    
  11.00 -89.00     0.64160    
  11.00 -88.00     0.45782    
  11.00 -87.00     0.31787    
  11.00 -86.00     0.25739    
  11.00 -85.00     0.29279    
  11.00 -84.00     0.41211    
  11.00 -83.00     0.58200    
  11.00 -82.00     0.75307    
  11.00 -81.00     0.87816    
  11.00 -80.00     0.92254    
  11.00 -79.00     0.87534    
  11.00 -78.00     0.75303    
  11.00 -77.00     0.59249    
  11.00 -76.00     0.44001    
  11.00 -75.00     0.33829    
  11.00 -74.00     0.31090    
  11.00 -73.00     0.35879    
  11.00 -72.00     0.45766    
  11.00 -71.00     0.56825    
  11.00 -70.00     0.64658    
  11.00 -69.00     0.66010    
  11.00 -68.00     0.59496    
  11.00 -67.00     0.46132    
  11.00 -66.00     0.28927    
  11.00 -65.00     0.11854    
  11.00 -64.00    -0.11736E-01
  11.00 -63.00    -0.76870E-01
  11.00 -62.00    -0.71218E-01
  11.00 -61.00    -0.96846E-02
  11.00 -60.00     0.78894E-01
  11.00 -59.00     0.16091    
  11.00 -58.00     0.20889    
  11.00 -57.00     0.20923    
  11.00 -56.00     0.16467    
  11.00 -55.00     0.92021E-01
  11.00 -54.00     0.14497E-01
  11.00 -53.00    -0.47473E-01
  11.00 -52.00    -0.83104E-01
  11.00 -51.00    -0.95884E-01
  11.00 -50.00    -0.10204    
  11.00 -49.00    -0.12467    
  11.00 -48.00    -0.18609    
  11.00 -47.00    -0.29957    
  11.00 -46.00    -0.46482    
  11.00 -45.00    -0.66791    
  11.00 -44.00    -0.88519    
  11.00 -43.00     -1.0907    
  11.00 -42.00     -1.2637    
  11.00 -41.00     -1.3948    
  11.00 -40.00     -1.4869    
  11.00 -39.00     -1.5532    
  11.00 -38.00     -1.6102    
  11.00 -37.00     -1.6711    
  11.00 -36.00     -1.7395    
  11.00 -35.00     -1.8070    
  11.00 -34.00     -1.8557    
  11.00 -33.00     -1.8645    
  11.00 -32.00     -1.8170    
  11.00 -31.00     -1.7092    
  11.00 -30.00     -1.5537    
  11.00 -29.00     -1.3781    
  11.00 -28.00     -1.2197    
  11.00 -27.00     -1.1151    
  11.00 -26.00     -1.0901    
  11.00 -25.00     -1.1515    
  11.00 -24.00     -1.2836    
  11.00 -23.00     -1.4516    
  11.00 -22.00     -1.6098    
  11.00 -21.00     -1.7133    
  11.00 -20.00     -1.7300    
  11.00 -19.00     -1.6492    
  11.00 -18.00     -1.4844    
  11.00 -17.00     -1.2702    
  11.00 -16.00     -1.0527    
  11.00 -15.00    -0.87794    
  11.00 -14.00    -0.78006    
  11.00 -13.00    -0.77320    
  11.00 -12.00    -0.84899    
  11.00 -11.00    -0.98004    
  11.00 -10.00     -1.1283    
  11.00  -9.00     -1.2558    
  11.00  -8.00     -1.3339    
  11.00  -7.00     -1.3501    
  11.00  -6.00     -1.3093    
  11.00  -5.00     -1.2299    
  11.00  -4.00     -1.1367    
  11.00  -3.00     -1.0529    
  11.00  -2.00    -0.99292    
  11.00  -1.00    -0.95939    
  11.00   0.00    -0.94347    
  11.00   1.00    -0.92919    
  11.00   2.00    -0.89958    
  11.00   3.00    -0.84248    
  11.00   4.00    -0.75439    
  11.00   5.00    -0.64105    
  11.00   6.00    -0.51497    
  11.00   7.00    -0.39098    
  11.00   8.00    -0.28153    
  11.00   9.00    -0.19340    
  11.00  10.00    -0.12690    
  11.00  11.00    -0.77767E-01
  11.00  12.00    -0.40686E-01
  11.00  13.00    -0.13101E-01
  11.00  14.00     0.24611E-02
  11.00  15.00    -0.14434E-02
  11.00  16.00    -0.34348E-01
  11.00  17.00    -0.10331    
  11.00  18.00    -0.20824    
  11.00  19.00    -0.33906    
  11.00  20.00    -0.47596    
  11.00  21.00    -0.59326    
  11.00  22.00    -0.66591    
  11.00  23.00    -0.67693    
  11.00  24.00    -0.62321    
  11.00  25.00    -0.51794    
  11.00  26.00    -0.38832    
  11.00  27.00    -0.26899    
  11.00  28.00    -0.19295    
  11.00  29.00    -0.18227    
  11.00  30.00    -0.24163    
  11.00  31.00    -0.35641    
  11.00  32.00    -0.49615    
  11.00  33.00    -0.62250    
  11.00  34.00    -0.69934    
  11.00  35.00    -0.70226    
  11.00  36.00    -0.62469    
  11.00  37.00    -0.47912    
  11.00  38.00    -0.29305    
  11.00  39.00    -0.10115    
  11.00  40.00     0.64052E-01
  11.00  41.00     0.18021    
  11.00  42.00     0.23968    
  11.00  43.00     0.24980    
  11.00  44.00     0.22866    
  11.00  45.00     0.19871    
  11.00  46.00     0.17968    
  11.00  47.00     0.18364    
  11.00  48.00     0.21269    
  11.00  49.00     0.26031    
  11.00  50.00     0.31508    
  11.00  51.00     0.36494    
  11.00  52.00     0.40090    
  11.00  53.00     0.41848    
  11.00  54.00     0.41694    
  11.00  55.00     0.39716    
  11.00  56.00     0.35858    
  11.00  57.00     0.29784    
  11.00  58.00     0.20929    
  11.00  59.00     0.87589E-01
  11.00  60.00    -0.68532E-01
  11.00  61.00    -0.25268    
  11.00  62.00    -0.44892    
  11.00  63.00    -0.63302    
  11.00  64.00    -0.77677    
  11.00  65.00    -0.85386    
  11.00  66.00    -0.84741    
  11.00  67.00    -0.75442    
  11.00  68.00    -0.58774    
  11.00  69.00    -0.37415    
  11.00  70.00    -0.14799    
  11.00  71.00     0.57045E-01
  11.00  72.00     0.21391    
  11.00  73.00     0.30887    
  11.00  74.00     0.34328    
  11.00  75.00     0.33143    
  11.00  76.00     0.29359    
  11.00  77.00     0.25280    
  11.00  78.00     0.22528    
  11.00  79.00     0.21899    
  11.00  80.00     0.23134    
  11.00  81.00     0.25426    
  11.00  82.00     0.27643    
  11.00  83.00     0.28903    
  11.00  84.00     0.28656    
  11.00  85.00     0.27112    
  11.00  86.00     0.25061    
  11.00  87.00     0.23319    
  11.00  88.00     0.22698    
  11.00  89.00     0.23519    
  12.00 -89.00     0.64308    
  12.00 -88.00     0.46032    
  12.00 -87.00     0.32098    
  12.00 -86.00     0.26108    
  12.00 -85.00     0.29705    
  12.00 -84.00     0.41738    
  12.00 -83.00     0.58822    
  12.00 -82.00     0.76065    
  12.00 -81.00     0.88637    
  12.00 -80.00     0.93012    
  12.00 -79.00     0.88036    
  12.00 -78.00     0.75336    
  12.00 -77.00     0.58637    
  12.00 -76.00     0.42676    
  12.00 -75.00     0.31880    
  12.00 -74.00     0.28783    
  12.00 -73.00     0.33591    
  12.00 -72.00     0.43934    
  12.00 -71.00     0.55796    
  12.00 -70.00     0.64602    
  12.00 -69.00     0.66815    
  12.00 -68.00     0.60755    
  12.00 -67.00     0.47205    
  12.00 -66.00     0.29062    
  12.00 -65.00     0.10370    
  12.00 -64.00    -0.47305E-01
  12.00 -63.00    -0.13416    
  12.00 -62.00    -0.14733    
  12.00 -61.00    -0.98332E-01
  12.00 -60.00    -0.14160E-01
  12.00 -59.00     0.71613E-01
  12.00 -58.00     0.12957    
  12.00 -57.00     0.14281    
  12.00 -56.00     0.11033    
  12.00 -55.00     0.45687E-01
  12.00 -54.00    -0.29622E-01
  12.00 -53.00    -0.94984E-01
  12.00 -52.00    -0.13746    
  12.00 -51.00    -0.15710    
  12.00 -50.00    -0.16629    
  12.00 -49.00    -0.18488    
  12.00 -48.00    -0.23353    
  12.00 -47.00    -0.32584    
  12.00 -46.00    -0.46388    
  12.00 -45.00    -0.63758    
  12.00 -44.00    -0.82770    
  12.00 -43.00     -1.0122    
  12.00 -42.00     -1.1730    
  12.00 -41.00     -1.3014    
  12.00 -40.00     -1.3994    
  12.00 -39.00     -1.4774    
  12.00 -38.00     -1.5487    
  12.00 -37.00     -1.6233    
  12.00 -36.00     -1.7024    
  12.00 -35.00     -1.7767    
  12.00 -34.00     -1.8288    
  12.00 -33.00     -1.8392    
  12.00 -32.00     -1.7937    
  12.00 -31.00     -1.6904    
  12.00 -30.00     -1.5430    
  12.00 -29.00     -1.3794    
  12.00 -28.00     -1.2355    
  12.00 -27.00     -1.1457    
  12.00 -26.00     -1.1332    
  12.00 -25.00     -1.2022    
  12.00 -24.00     -1.3356    
  12.00 -23.00     -1.4980    
  12.00 -22.00     -1.6450    
  12.00 -21.00     -1.7338    
  12.00 -20.00     -1.7353    
  12.00 -19.00     -1.6417    
  12.00 -18.00     -1.4688    
  12.00 -17.00     -1.2522    
  12.00 -16.00     -1.0376    
  12.00 -15.00    -0.86973    
  12.00 -14.00    -0.78036    
  12.00 -13.00    -0.78139    
  12.00 -12.00    -0.86270    
  12.00 -11.00    -0.99619    
  12.00 -10.00     -1.1443    
  12.00  -9.00     -1.2702    
  12.00  -8.00     -1.3474    
  12.00  -7.00     -1.3650    
  12.00  -6.00     -1.3286    
  12.00  -5.00     -1.2567    
  12.00  -4.00     -1.1727    
  12.00  -3.00     -1.0977    
  12.00  -2.00     -1.0443    
  12.00  -1.00     -1.0131    
  12.00   0.00    -0.99496    
  12.00   1.00    -0.97449    
  12.00   2.00    -0.93650    
  12.00   3.00    -0.87120    
  12.00   4.00    -0.77732    
  12.00   5.00    -0.66202    
  12.00   6.00    -0.53804    
  12.00   7.00    -0.41919    
  12.00   8.00    -0.31603    
  12.00   9.00    -0.23324    
  12.00  10.00    -0.16959    
  12.00  11.00    -0.12037    
  12.00  12.00    -0.81099E-01
  12.00  13.00    -0.51026E-01
  12.00  14.00    -0.34804E-01
  12.00  15.00    -0.41421E-01
  12.00  16.00    -0.80590E-01
  12.00  17.00    -0.15778    
  12.00  18.00    -0.26967    
  12.00  19.00    -0.40204    
  12.00  20.00    -0.53116    
  12.00  21.00    -0.62887    
  12.00  22.00    -0.67014    
  12.00  23.00    -0.64084    
  12.00  24.00    -0.54335    
  12.00  25.00    -0.39790    
  12.00  26.00    -0.23883    
  12.00  27.00    -0.10644    
  12.00  28.00    -0.36506E-01
  12.00  29.00    -0.50395E-01
  12.00  30.00    -0.14863    
  12.00  31.00    -0.30992    
  12.00  32.00    -0.49602    
  12.00  33.00    -0.66129    
  12.00  34.00    -0.76417    
  12.00  35.00    -0.77762    
  12.00  36.00    -0.69536    
  12.00  37.00    -0.53268    
  12.00  38.00    -0.32140    
  12.00  39.00    -0.10094    
  12.00  40.00     0.91993E-01
  12.00  41.00     0.23215    
  12.00  42.00     0.31045    
  12.00  43.00     0.33402    
  12.00  44.00     0.32154    
  12.00  45.00     0.29627    
  12.00  46.00     0.27844    
  12.00  47.00     0.28030    
  12.00  48.00     0.30366    
  12.00  49.00     0.34168    
  12.00  50.00     0.38279    
  12.00  51.00     0.41531    
  12.00  52.00     0.43126    
  12.00  53.00     0.42785    
  12.00  54.00     0.40623    
  12.00  55.00     0.36931    
  12.00  56.00     0.31814    
  12.00  57.00     0.25038    
  12.00  58.00     0.16070    
  12.00  59.00     0.43372E-01
  12.00  60.00    -0.10392    
  12.00  61.00    -0.27608    
  12.00  62.00    -0.45865    
  12.00  63.00    -0.62897    
  12.00  64.00    -0.76012    
  12.00  65.00    -0.82687    
  12.00  66.00    -0.81305    
  12.00  67.00    -0.71582    
  12.00  68.00    -0.54810    
  12.00  69.00    -0.33601    
  12.00  70.00    -0.11309    
  12.00  71.00     0.87924E-01
  12.00  72.00     0.24109    
  12.00  73.00     0.33347    
  12.00  74.00     0.36683    
  12.00  75.00     0.35547    
  12.00  76.00     0.31911    
  12.00  77.00     0.28004    
  12.00  78.00     0.25362    
  12.00  79.00     0.24696    
  12.00  80.00     0.25718    
  12.00  81.00     0.27620    
  12.00  82.00     0.29321    
  12.00  83.00     0.30011    
  12.00  84.00     0.29232    
  12.00  85.00     0.27243    
  12.00  86.00     0.24906    
  12.00  87.00     0.23043    
  12.00  88.00     0.22433    
  12.00  89.00     0.23369    
  13.00 -89.00     0.64462    
  13.00 -88.00     0.46292    
  13.00 -87.00     0.32419    
  13.00 -86.00     0.26483    
  13.00 -85.00     0.30124    
  13.00 -84.00     0.42236    
  13.00 -83.00     0.59388    
  13.00 -82.00     0.76737    
  13.00 -81.00     0.89340    
  13.00 -80.00     0.93623    
  13.00 -79.00     0.88367    
  13.00 -78.00     0.75177    
  13.00 -77.00     0.57816    
  13.00 -76.00     0.41122    
  13.00 -75.00     0.29672    
  13.00 -74.00     0.26184    
  13.00 -73.00     0.30972    
  13.00 -72.00     0.41728    
  13.00 -71.00     0.54350    
  13.00 -70.00     0.64094    
  13.00 -69.00     0.67145    
  13.00 -68.00     0.61529    
  13.00 -67.00     0.47797    
  13.00 -66.00     0.28732    
  13.00 -65.00     0.84469E-01
  13.00 -64.00    -0.87061E-01
  13.00 -63.00    -0.19547    
  13.00 -62.00    -0.22744    
  13.00 -61.00    -0.19117    
  13.00 -60.00    -0.11184    
  13.00 -59.00    -0.23018E-01
  13.00 -58.00     0.43941E-01
  13.00 -57.00     0.68919E-01
  13.00 -56.00     0.47280E-01
  13.00 -55.00    -0.10502E-01
  13.00 -54.00    -0.84424E-01
  13.00 -53.00    -0.15342    
  13.00 -52.00    -0.20219    
  13.00 -51.00    -0.22719    
  13.00 -50.00    -0.23686    
  13.00 -49.00    -0.24789    
  13.00 -48.00    -0.27950    
  13.00 -47.00    -0.34597    
  13.00 -46.00    -0.45217    
  13.00 -45.00    -0.59227    
  13.00 -44.00    -0.75178    
  13.00 -43.00    -0.91273    
  13.00 -42.00     -1.0598    
  13.00 -41.00     -1.1849    
  13.00 -40.00     -1.2887    
  13.00 -39.00     -1.3787    
  13.00 -38.00     -1.4649    
  13.00 -37.00     -1.5540    
  13.00 -36.00     -1.6449    
  13.00 -35.00     -1.7277    
  13.00 -34.00     -1.7859    
  13.00 -33.00     -1.8016    
  13.00 -32.00     -1.7629    
  13.00 -31.00     -1.6698    
  13.00 -30.00     -1.5366    
  13.00 -29.00     -1.3904    
  13.00 -28.00     -1.2651    
  13.00 -27.00     -1.1923    
  13.00 -26.00     -1.1921    
  13.00 -25.00     -1.2666    
  13.00 -24.00     -1.3978    
  13.00 -23.00     -1.5513    
  13.00 -22.00     -1.6848    
  13.00 -21.00     -1.7591    
  13.00 -20.00     -1.7488    
  13.00 -19.00     -1.6490    
  13.00 -18.00     -1.4771    
  13.00 -17.00     -1.2683    
  13.00 -16.00     -1.0666    
  13.00 -15.00    -0.91313    
  13.00 -14.00    -0.83622    
  13.00 -13.00    -0.84462    
  13.00 -12.00    -0.92642    
  13.00 -11.00     -1.0535    
  13.00 -10.00     -1.1899    
  13.00  -9.00     -1.3019    
  13.00  -8.00     -1.3661    
  13.00  -7.00     -1.3745    
  13.00  -6.00     -1.3347    
  13.00  -5.00     -1.2649    
  13.00  -4.00     -1.1875    
  13.00  -3.00     -1.1215    
  13.00  -2.00     -1.0769    
  13.00  -1.00     -1.0529    
  13.00   0.00     -1.0394    
  13.00   1.00     -1.0218    
  13.00   2.00    -0.98621    
  13.00   3.00    -0.92453    
  13.00   4.00    -0.83653    
  13.00   5.00    -0.72931    
  13.00   6.00    -0.61425    
  13.00   7.00    -0.50272    
  13.00   8.00    -0.40256    
  13.00   9.00    -0.31632    
  13.00  10.00    -0.24205    
  13.00  11.00    -0.17624    
  13.00  12.00    -0.11739    
  13.00  13.00    -0.68873E-01
  13.00  14.00    -0.39402E-01
  13.00  15.00    -0.40798E-01
  13.00  16.00    -0.83383E-01
  13.00  17.00    -0.17060    
  13.00  18.00    -0.29485    
  13.00  19.00    -0.43638    
  13.00  20.00    -0.56616    
  13.00  21.00    -0.65255    
  13.00  22.00    -0.66990    
  13.00  23.00    -0.60684    
  13.00  24.00    -0.47138    
  13.00  25.00    -0.29097    
  13.00  26.00    -0.10713    
  13.00  27.00     0.34490E-01
  13.00  28.00     0.95917E-01
  13.00  29.00     0.57271E-01
  13.00  30.00    -0.77134E-01
  13.00  31.00    -0.27895    
  13.00  32.00    -0.50228    
  13.00  33.00    -0.69490    
  13.00  34.00    -0.81109    
  13.00  35.00    -0.82263    
  13.00  36.00    -0.72508    
  13.00  37.00    -0.53769    
  13.00  38.00    -0.29727    
  13.00  39.00    -0.48001E-01
  13.00  40.00     0.16985    
  13.00  41.00     0.32912    
  13.00  42.00     0.42048    
  13.00  43.00     0.45192    
  13.00  44.00     0.44344    
  13.00  45.00     0.41946    
  13.00  46.00     0.40059    
  13.00  47.00     0.39886    
  13.00  48.00     0.41521    
  13.00  49.00     0.44199    
  13.00  50.00     0.46716    
  13.00  51.00     0.47938    
  13.00  52.00     0.47192    
  13.00  53.00     0.44411    
  13.00  54.00     0.39953    
  13.00  55.00     0.34355    
  13.00  56.00     0.27916    
  13.00  57.00     0.20519    
  13.00  58.00     0.11642    
  13.00  59.00     0.64278E-02
  13.00  60.00    -0.12860    
  13.00  61.00    -0.28540    
  13.00  62.00    -0.45148    
  13.00  63.00    -0.60606    
  13.00  64.00    -0.72371    
  13.00  65.00    -0.78037    
  13.00  66.00    -0.76041    
  13.00  67.00    -0.66094    
  13.00  68.00    -0.49463    
  13.00  69.00    -0.28664    
  13.00  70.00    -0.69380E-01
  13.00  71.00     0.12552    
  13.00  72.00     0.27333    
  13.00  73.00     0.36196    
  13.00  74.00     0.39349    
  13.00  75.00     0.38211    
  13.00  76.00     0.34689    
  13.00  77.00     0.30927    
  13.00  78.00     0.28362    
  13.00  79.00     0.27623    
  13.00  80.00     0.28395    
  13.00  81.00     0.29869    
  13.00  82.00     0.31024    
  13.00  83.00     0.31121    
  13.00  84.00     0.29796    
  13.00  85.00     0.27360    
  13.00  86.00     0.24739    
  13.00  87.00     0.22762    
  13.00  88.00     0.22165    
  13.00  89.00     0.23219    
  14.00 -89.00     0.64621    
  14.00 -88.00     0.46562    
  14.00 -87.00     0.32751    
  14.00 -86.00     0.26864    
  14.00 -85.00     0.30536    
  14.00 -84.00     0.42702    
  14.00 -83.00     0.59898    
  14.00 -82.00     0.77320    
  14.00 -81.00     0.89922    
  14.00 -80.00     0.94086    
  14.00 -79.00     0.88529    
  14.00 -78.00     0.74831    
  14.00 -77.00     0.56795    
  14.00 -76.00     0.39349    
  14.00 -75.00     0.27221    
  14.00 -74.00     0.23307    
  14.00 -73.00     0.28030    
  14.00 -72.00     0.39147    
  14.00 -71.00     0.52481    
  14.00 -70.00     0.63126    
  14.00 -69.00     0.66992    
  14.00 -68.00     0.61826    
  14.00 -67.00     0.47943    
  14.00 -66.00     0.28016    
  14.00 -65.00     0.62127E-01
  14.00 -64.00    -0.12915    
  14.00 -63.00    -0.25838    
  14.00 -62.00    -0.30865    
  14.00 -61.00    -0.28493    
  14.00 -60.00    -0.21071    
  14.00 -59.00    -0.11957    
  14.00 -58.00    -0.44750E-01
  14.00 -57.00    -0.95055E-02
  14.00 -56.00    -0.21878E-01
  14.00 -55.00    -0.74267E-01
  14.00 -54.00    -0.14791    
  14.00 -53.00    -0.22101    
  14.00 -52.00    -0.27573    
  14.00 -51.00    -0.30482    
  14.00 -50.00    -0.31276    
  14.00 -49.00    -0.31327    
  14.00 -48.00    -0.32430    
  14.00 -47.00    -0.36118    
  14.00 -46.00    -0.43195    
  14.00 -45.00    -0.53527    
  14.00 -44.00    -0.66160    
  14.00 -43.00    -0.79719    
  14.00 -42.00    -0.92932    
  14.00 -41.00     -1.0503    
  14.00 -40.00     -1.1593    
  14.00 -39.00     -1.2608    
  14.00 -38.00     -1.3613    
  14.00 -37.00     -1.4642    
  14.00 -36.00     -1.5666    
  14.00 -35.00     -1.6581    
  14.00 -34.00     -1.7234    
  14.00 -33.00     -1.7465    
  14.00 -32.00     -1.7179    
  14.00 -31.00     -1.6387    
  14.00 -30.00     -1.5236    
  14.00 -29.00     -1.3982    
  14.00 -28.00     -1.2938    
  14.00 -27.00     -1.2386    
  14.00 -26.00     -1.2498    
  14.00 -25.00     -1.3275    
  14.00 -24.00     -1.4537    
  14.00 -23.00     -1.5959    
  14.00 -22.00     -1.7154    
  14.00 -21.00     -1.7772    
  14.00 -20.00     -1.7600    
  14.00 -19.00     -1.6616    
  14.00 -18.00     -1.5001    
  14.00 -17.00     -1.3091    
  14.00 -16.00     -1.1290    
  14.00 -15.00    -0.99633    
  14.00 -14.00    -0.93459    
  14.00 -13.00    -0.94895    
  14.00 -12.00     -1.0260    
  14.00 -11.00     -1.1383    
  14.00 -10.00     -1.2529    
  14.00  -9.00     -1.3403    
  14.00  -8.00     -1.3817    
  14.00  -7.00     -1.3729    
  14.00  -6.00     -1.3236    
  14.00  -5.00     -1.2522    
  14.00  -4.00     -1.1799    
  14.00  -3.00     -1.1233    
  14.00  -2.00     -1.0899    
  14.00  -1.00     -1.0773    
  14.00   0.00     -1.0749    
  14.00   1.00     -1.0687    
  14.00   2.00     -1.0461    
  14.00   3.00    -0.99979    
  14.00   4.00    -0.92964    
  14.00   5.00    -0.84120    
  14.00   6.00    -0.74282    
  14.00   7.00    -0.64204    
  14.00   8.00    -0.54301    
  14.00   9.00    -0.44593    
  14.00  10.00    -0.34887    
  14.00  11.00    -0.25097    
  14.00  12.00    -0.15575    
  14.00  13.00    -0.72821E-01
  14.00  14.00    -0.16929E-01
  14.00  15.00    -0.40927E-02
  14.00  16.00    -0.45868E-01
  14.00  17.00    -0.14355    
  14.00  18.00    -0.28452    
  14.00  19.00    -0.44241    
  14.00  20.00    -0.58178    
  14.00  21.00    -0.66647    
  14.00  22.00    -0.66955    
  14.00  23.00    -0.58192    
  14.00  24.00    -0.41687    
  14.00  25.00    -0.20881    
  14.00  26.00    -0.59565E-02
  14.00  27.00     0.14131    
  14.00  28.00     0.19352    
  14.00  29.00     0.13293    
  14.00  30.00    -0.30972E-01
  14.00  31.00    -0.26290    
  14.00  32.00    -0.51003    
  14.00  33.00    -0.71483    
  14.00  34.00    -0.82906    
  14.00  35.00    -0.82514    
  14.00  36.00    -0.70200    
  14.00  37.00    -0.48391    
  14.00  38.00    -0.21304    
  14.00  39.00     0.62081E-01
  14.00  40.00     0.29860    
  14.00  41.00     0.46883    
  14.00  42.00     0.56467    
  14.00  43.00     0.59621    
  14.00  44.00     0.58565    
  14.00  45.00     0.55885    
  14.00  46.00     0.53675    
  14.00  47.00     0.53055    
  14.00  48.00     0.53974    
  14.00  49.00     0.55518    
  14.00  50.00     0.56393    
  14.00  51.00     0.55481    
  14.00  52.00     0.52245    
  14.00  53.00     0.46858    
  14.00  54.00     0.39963    
  14.00  55.00     0.32383    
  14.00  56.00     0.24636    
  14.00  57.00     0.16727    
  14.00  58.00     0.81383E-01
  14.00  59.00    -0.18714E-01
  14.00  60.00    -0.13871    
  14.00  61.00    -0.27756    
  14.00  62.00    -0.42513    
  14.00  63.00    -0.56277    
  14.00  64.00    -0.66673    
  14.00  65.00    -0.71404    
  14.00  66.00    -0.68952    
  14.00  67.00    -0.59003    
  14.00  68.00    -0.42767    
  14.00  69.00    -0.22637    
  14.00  70.00    -0.17164E-01
  14.00  71.00     0.16959    
  14.00  72.00     0.31046    
  14.00  73.00     0.39420    
  14.00  74.00     0.42314    
  14.00  75.00     0.41123    
  14.00  76.00     0.37681    
  14.00  77.00     0.34032    
  14.00  78.00     0.31513    
  14.00  79.00     0.30664    
  14.00  80.00     0.31150    
  14.00  81.00     0.32162    
  14.00  82.00     0.32742    
  14.00  83.00     0.32224    
  14.00  84.00     0.30341    
  14.00  85.00     0.27460    
  14.00  86.00     0.24558    
  14.00  87.00     0.22473    
  14.00  88.00     0.21894    
  14.00  89.00     0.23068    
  15.00 -89.00     0.64785    
  15.00 -88.00     0.46843    
  15.00 -87.00     0.33093    
  15.00 -86.00     0.27251    
  15.00 -85.00     0.30938    
  15.00 -84.00     0.43134    
  15.00 -83.00     0.60349    
  15.00 -82.00     0.77811    
  15.00 -81.00     0.90383    
  15.00 -80.00     0.94400    
  15.00 -79.00     0.88526    
  15.00 -78.00     0.74306    
  15.00 -77.00     0.55585    
  15.00 -76.00     0.37375    
  15.00 -75.00     0.24545    
  15.00 -74.00     0.20169    
  15.00 -73.00     0.24779    
  15.00 -72.00     0.36201    
  15.00 -71.00     0.50195    
  15.00 -70.00     0.61698    
  15.00 -69.00     0.66366    
  15.00 -68.00     0.61671    
  15.00 -67.00     0.47699    
  15.00 -66.00     0.27010    
  15.00 -65.00     0.38159E-01
  15.00 -64.00    -0.17145    
  15.00 -63.00    -0.32017    
  15.00 -62.00    -0.38769    
  15.00 -61.00    -0.37594    
  15.00 -60.00    -0.30685    
  15.00 -59.00    -0.21401    
  15.00 -58.00    -0.13252    
  15.00 -57.00    -0.88602E-01
  15.00 -56.00    -0.93468E-01
  15.00 -55.00    -0.14211    
  15.00 -54.00    -0.21674    
  15.00 -53.00    -0.29459    
  15.00 -52.00    -0.35517    
  15.00 -51.00    -0.38745    
  15.00 -50.00    -0.39203    
  15.00 -49.00    -0.37983    
  15.00 -48.00    -0.36780    
  15.00 -47.00    -0.37260    
  15.00 -46.00    -0.40568    
  15.00 -45.00    -0.47035    
  15.00 -44.00    -0.56207    
  15.00 -43.00    -0.67122    
  15.00 -42.00    -0.78748    
  15.00 -41.00    -0.90345    
  15.00 -40.00     -1.0165    
  15.00 -39.00     -1.1280    
  15.00 -38.00     -1.2409    
  15.00 -37.00     -1.3556    
  15.00 -36.00     -1.4676    
  15.00 -35.00     -1.5663    
  15.00 -34.00     -1.6378    
  15.00 -33.00     -1.6684    
  15.00 -32.00     -1.6506    
  15.00 -31.00     -1.5868    
  15.00 -30.00     -1.4913    
  15.00 -29.00     -1.3878    
  15.00 -28.00     -1.3046    
  15.00 -27.00     -1.2664    
  15.00 -26.00     -1.2873    
  15.00 -25.00     -1.3661    
  15.00 -24.00     -1.4856    
  15.00 -23.00     -1.6158    
  15.00 -22.00     -1.7222    
  15.00 -21.00     -1.7749    
  15.00 -20.00     -1.7563    
  15.00 -19.00     -1.6667    
  15.00 -18.00     -1.5239    
  15.00 -17.00     -1.3589    
  15.00 -16.00     -1.2069    
  15.00 -15.00     -1.0989    
  15.00 -14.00     -1.0530    
  15.00 -13.00     -1.0708    
  15.00 -12.00     -1.1378    
  15.00 -11.00     -1.2283    
  15.00 -10.00     -1.3135    
  15.00  -9.00     -1.3690    
  15.00  -8.00     -1.3817    
  15.00  -7.00     -1.3513    
  15.00  -6.00     -1.2898    
  15.00  -5.00     -1.2157    
  15.00  -4.00     -1.1484    
  15.00  -3.00     -1.1019    
  15.00  -2.00     -1.0814    
  15.00  -1.00     -1.0829    
  15.00   0.00     -1.0958    
  15.00   1.00     -1.1069    
  15.00   2.00     -1.1048    
  15.00   3.00     -1.0832    
  15.00   4.00     -1.0410    
  15.00   5.00    -0.98116    
  15.00   6.00    -0.90757    
  15.00   7.00    -0.82263    
  15.00   8.00    -0.72583    
  15.00   9.00    -0.61470    
  15.00  10.00    -0.48760    
  15.00  11.00    -0.34731    
  15.00  12.00    -0.20379    
  15.00  13.00    -0.74521E-01
  15.00  14.00     0.18210E-01
  15.00  15.00     0.53023E-01
  15.00  16.00     0.16470E-01
  15.00  17.00    -0.90749E-01
  15.00  18.00    -0.25070    
  15.00  19.00    -0.42987    
  15.00  20.00    -0.58575    
  15.00  21.00    -0.67705    
  15.00  22.00    -0.67494    
  15.00  23.00    -0.57205    
  15.00  24.00    -0.38638    
  15.00  25.00    -0.15851    
  15.00  26.00     0.57467E-01
  15.00  27.00     0.20739    
  15.00  28.00     0.25115    
  15.00  29.00     0.17367    
  15.00  30.00    -0.10278E-01
  15.00  31.00    -0.25905    
  15.00  32.00    -0.51407    
  15.00  33.00    -0.71420    
  15.00  34.00    -0.81064    
  15.00  35.00    -0.77832    
  15.00  36.00    -0.62103    
  15.00  37.00    -0.36888    
  15.00  38.00    -0.69365E-01
  15.00  39.00     0.22533    
  15.00  40.00     0.47114    
  15.00  41.00     0.64151    
  15.00  42.00     0.73122    
  15.00  43.00     0.75378    
  15.00  44.00     0.73447    
  15.00  45.00     0.70083    
  15.00  46.00     0.67393    
  15.00  47.00     0.66356    
  15.00  48.00     0.66699    
  15.00  49.00     0.67283    
  15.00  50.00     0.66672    
  15.00  51.00     0.63734    
  15.00  52.00     0.58068    
  15.00  53.00     0.50099    
  15.00  54.00     0.40790    
  15.00  55.00     0.31274    
  15.00  56.00     0.22309    
  15.00  57.00     0.14029    
  15.00  58.00     0.59152E-01
  15.00  59.00    -0.28941E-01
  15.00  60.00    -0.13181    
  15.00  61.00    -0.25092    
  15.00  62.00    -0.37874    
  15.00  63.00    -0.49898    
  15.00  64.00    -0.58956    
  15.00  65.00    -0.62866    
  15.00  66.00    -0.60134    
  15.00  67.00    -0.50411    
  15.00  68.00    -0.34819    
  15.00  69.00    -0.15602    
  15.00  70.00     0.42887E-01
  15.00  71.00     0.21964    
  15.00  72.00     0.35208    
  15.00  73.00     0.42988    
  15.00  74.00     0.45553    
  15.00  75.00     0.44262    
  15.00  76.00     0.40866    
  15.00  77.00     0.37301    
  15.00  78.00     0.34796    
  15.00  79.00     0.33803    
  15.00  80.00     0.33967    
  15.00  81.00     0.34485    
  15.00  82.00     0.34465    
  15.00  83.00     0.33315    
  15.00  84.00     0.30865    
  15.00  85.00     0.27542    
  15.00  86.00     0.24363    
  15.00  87.00     0.22176    
  15.00  88.00     0.21619    
  15.00  89.00     0.22917    
  16.00 -89.00     0.64955    
  16.00 -88.00     0.47133    
