-138.00 -77.00     0.39263    
-138.00 -76.00     0.33798    
-138.00 -75.00     0.27550    
-138.00 -74.00     0.21801    
-138.00 -73.00     0.17935    
-138.00 -72.00     0.16957    
-138.00 -71.00     0.19001    
-138.00 -70.00     0.23206    
-138.00 -69.00     0.27959    
-138.00 -68.00     0.31291    
-138.00 -67.00     0.31554    
-138.00 -66.00     0.27988    
-138.00 -65.00     0.21023    
-138.00 -64.00     0.12173    
-138.00 -63.00     0.35509E-01
-138.00 -62.00    -0.27761E-01
-138.00 -61.00    -0.56079E-01
-138.00 -60.00    -0.49859E-01
-138.00 -59.00    -0.23280E-01
-138.00 -58.00    -0.23999E-03
-138.00 -57.00    -0.65042E-02
-138.00 -56.00    -0.61556E-01
-138.00 -55.00    -0.17060    
-138.00 -54.00    -0.32217    
-138.00 -53.00    -0.48956    
-138.00 -52.00    -0.63831    
-138.00 -51.00    -0.73560    
-138.00 -50.00    -0.76001    
-138.00 -49.00    -0.70851    
-138.00 -48.00    -0.59786    
-138.00 -47.00    -0.46033    
-138.00 -46.00    -0.33517    
-138.00 -45.00    -0.25730    
-138.00 -44.00    -0.24790    
-138.00 -43.00    -0.30849    
-138.00 -42.00    -0.42069    
-138.00 -41.00    -0.55160    
-138.00 -40.00    -0.66340    
-138.00 -39.00    -0.72367    
-138.00 -38.00    -0.71425    
-138.00 -37.00    -0.63569    
-138.00 -36.00    -0.50634    
-138.00 -35.00    -0.35661    
-138.00 -34.00    -0.22010    
-138.00 -33.00    -0.12446    
-138.00 -32.00    -0.84329E-01
-138.00 -31.00    -0.98400E-01
-138.00 -30.00    -0.15108    
-138.00 -29.00    -0.21799    
-138.00 -28.00    -0.27359    
-138.00 -27.00    -0.29847    
-138.00 -26.00    -0.28457    
-138.00 -25.00    -0.23671    
-138.00 -24.00    -0.17057    
-138.00 -23.00    -0.10770    
-138.00 -22.00    -0.69325E-01
-138.00 -21.00    -0.70495E-01
-138.00 -20.00    -0.11634    
-138.00 -19.00    -0.20100    
-138.00 -18.00    -0.30944    
-138.00 -17.00    -0.42132    
-138.00 -16.00    -0.51575    
-138.00 -15.00    -0.57578    
-138.00 -14.00    -0.59145    
-138.00 -13.00    -0.56107    
-138.00 -12.00    -0.49046    
-138.00 -11.00    -0.39089    
-138.00 -10.00    -0.27616    
-138.00  -9.00    -0.15985    
-138.00  -8.00    -0.53105E-01
-138.00  -7.00     0.36611E-01
-138.00  -6.00     0.10572    
-138.00  -5.00     0.15400    
-138.00  -4.00     0.18362    
-138.00  -3.00     0.19806    
-138.00  -2.00     0.20121    
-138.00  -1.00     0.19676    
-138.00   0.00     0.18793    
-138.00   1.00     0.17736    
-138.00   2.00     0.16712    
-138.00   3.00     0.15868    
-138.00   4.00     0.15284    
-138.00   5.00     0.14969    
-138.00   6.00     0.14864    
-138.00   7.00     0.14862    
-138.00   8.00     0.14853    
-138.00   9.00     0.14782    
-138.00  10.00     0.14709    
-138.00  11.00     0.14844    
-138.00  12.00     0.15537    
-138.00  13.00     0.17212    
-138.00  14.00     0.20242    
-138.00  15.00     0.24799    
-138.00  16.00     0.30715    
-138.00  17.00     0.37397    
-138.00  18.00     0.43856    
-138.00  19.00     0.48852    
-138.00  20.00     0.51141    
-138.00  21.00     0.49792    
-138.00  22.00     0.44477    
-138.00  23.00     0.35651    
-138.00  24.00     0.24575    
-138.00  25.00     0.13121    
-138.00  26.00     0.34158E-01
-138.00  27.00    -0.26170E-01
-138.00  28.00    -0.37013E-01
-138.00  29.00     0.48591E-02
-138.00  30.00     0.92291E-01
-138.00  31.00     0.20943    
-138.00  32.00     0.33559    
-138.00  33.00     0.45023    
-138.00  34.00     0.53779    
-138.00  35.00     0.59093    
-138.00  36.00     0.61144    
-138.00  37.00     0.60844    
-138.00  38.00     0.59471    
-138.00  39.00     0.58201    
-138.00  40.00     0.57715    
-138.00  41.00     0.57969    
-138.00  42.00     0.58221    
-138.00  43.00     0.57284    
-138.00  44.00     0.53926    
-138.00  45.00     0.47283    
-138.00  46.00     0.37189    
-138.00  47.00     0.24227    
-138.00  48.00     0.96434E-01
-138.00  49.00    -0.49855E-01
-138.00  50.00    -0.18144    
-138.00  51.00    -0.28694    
-138.00  52.00    -0.36086    
-138.00  53.00    -0.40320    
-138.00  54.00    -0.41775    
-138.00  55.00    -0.40945    
-138.00  56.00    -0.38160    
-138.00  57.00    -0.33457    
-138.00  58.00    -0.26612    
-138.00  59.00    -0.17295    
-138.00  60.00    -0.54105E-01
-138.00  61.00     0.87617E-01
-138.00  62.00     0.24393    
-138.00  63.00     0.40184    
-138.00  64.00     0.54590    
-138.00  65.00     0.66197    
-138.00  66.00     0.74030    
-138.00  67.00     0.77819    
-138.00  68.00     0.78023    
-138.00  69.00     0.75682    
-138.00  70.00     0.72116    
-138.00  71.00     0.68567    
-138.00  72.00     0.65891    
-138.00  73.00     0.64336    
-138.00  74.00     0.63671    
-138.00  75.00     0.63263    
-138.00  76.00     0.62147    
-138.00  77.00     0.59681    
-138.00  78.00     0.55196    
-138.00  79.00     0.48411    
-138.00  80.00     0.39191    
-138.00  81.00     0.27674    
-138.00  82.00     0.14043    
-138.00  83.00    -0.10803E-01
-138.00  84.00    -0.17018    
-138.00  85.00    -0.32565    
-138.00  86.00    -0.46118    
-138.00  87.00    -0.55953    
-138.00  88.00    -0.60449    
-138.00  89.00    -0.58269    
-137.00 -89.00     0.15806    
-137.00 -88.00     0.22767    
-137.00 -87.00     0.29664    
-137.00 -86.00     0.35295    
-137.00 -85.00     0.39012    
-137.00 -84.00     0.40929    
-137.00 -83.00     0.41854    
-137.00 -82.00     0.42259    
-137.00 -81.00     0.42792    
-137.00 -80.00     0.43327    
-137.00 -79.00     0.43403    
-137.00 -78.00     0.42254    
-137.00 -77.00     0.39299    
-137.00 -76.00     0.34583    
-137.00 -75.00     0.28821    
-137.00 -74.00     0.23168    
-137.00 -73.00     0.18962    
-137.00 -72.00     0.17282    
-137.00 -71.00     0.18435    
-137.00 -70.00     0.21804    
-137.00 -69.00     0.26028    
-137.00 -68.00     0.29313    
-137.00 -67.00     0.30063    
-137.00 -66.00     0.27403    
-137.00 -65.00     0.21511    
-137.00 -64.00     0.13550    
-137.00 -63.00     0.53214E-01
-137.00 -62.00    -0.13184E-01
-137.00 -61.00    -0.51733E-01
-137.00 -60.00    -0.60466E-01
-137.00 -59.00    -0.49316E-01
-137.00 -58.00    -0.36889E-01
-137.00 -57.00    -0.44098E-01
-137.00 -56.00    -0.87459E-01
-137.00 -55.00    -0.17218    
-137.00 -54.00    -0.29006    
-137.00 -53.00    -0.42043    
-137.00 -52.00    -0.53624    
-137.00 -51.00    -0.61177    
-137.00 -50.00    -0.63047    
-137.00 -49.00    -0.59076    
-137.00 -48.00    -0.50681    
-137.00 -47.00    -0.40513    
-137.00 -46.00    -0.31728    
-137.00 -45.00    -0.27044    
-137.00 -44.00    -0.27992    
-137.00 -43.00    -0.34448    
-137.00 -42.00    -0.44648    
-137.00 -41.00    -0.55671    
-137.00 -40.00    -0.64276    
-137.00 -39.00    -0.67766    
-137.00 -38.00    -0.64745    
-137.00 -37.00    -0.55472    
-137.00 -36.00    -0.41770    
-137.00 -35.00    -0.26515    
-137.00 -34.00    -0.12866    
-137.00 -33.00    -0.34531E-01
-137.00 -32.00     0.25146E-02
-137.00 -31.00    -0.17749E-01
-137.00 -30.00    -0.82093E-01
-137.00 -29.00    -0.16830    
-137.00 -28.00    -0.25161    
-137.00 -27.00    -0.31131    
-137.00 -26.00    -0.33576    
-137.00 -25.00    -0.32465    
-137.00 -24.00    -0.28814    
-137.00 -23.00    -0.24334    
-137.00 -22.00    -0.20934    
-137.00 -21.00    -0.20197    
-137.00 -20.00    -0.22984    
-137.00 -19.00    -0.29233    
-137.00 -18.00    -0.37985    
-137.00 -17.00    -0.47624    
-137.00 -16.00    -0.56239    
-137.00 -15.00    -0.62030    
-137.00 -14.00    -0.63660    
-137.00 -13.00    -0.60491    
-137.00 -12.00    -0.52657    
-137.00 -11.00    -0.40994    
-137.00 -10.00    -0.26848    
-137.00  -9.00    -0.11810    
-137.00  -8.00     0.25452E-01
-137.00  -7.00     0.14896    
-137.00  -6.00     0.24323    
-137.00  -5.00     0.30371    
-137.00  -4.00     0.33033    
-137.00  -3.00     0.32668    
-137.00  -2.00     0.29890    
-137.00  -1.00     0.25449    
-137.00   0.00     0.20130    
-137.00   1.00     0.14677    
-137.00   2.00     0.97380E-01
-137.00   3.00     0.58280E-01
-137.00   4.00     0.32953E-01
-137.00   5.00     0.22977E-01
-137.00   6.00     0.27874E-01
-137.00   7.00     0.45191E-01
-137.00   8.00     0.70936E-01
-137.00   9.00     0.10039    
-137.00  10.00     0.12921    
-137.00  11.00     0.15460    
-137.00  12.00     0.17614    
-137.00  13.00     0.19597    
-137.00  14.00     0.21817    
-137.00  15.00     0.24720    
-137.00  16.00     0.28607    
-137.00  17.00     0.33444    
-137.00  18.00     0.38760    
-137.00  19.00     0.43673    
-137.00  20.00     0.47062    
-137.00  21.00     0.47855    
-137.00  22.00     0.45371    
-137.00  23.00     0.39596    
-137.00  24.00     0.31321    
-137.00  25.00     0.22066    
-137.00  26.00     0.13779    
-137.00  27.00     0.83978E-01
-137.00  28.00     0.73569E-01
-137.00  29.00     0.11206    
-137.00  30.00     0.19435    
-137.00  31.00     0.30581    
-137.00  32.00     0.42589    
-137.00  33.00     0.53330    
-137.00  34.00     0.61141    
-137.00  35.00     0.65212    
-137.00  36.00     0.65728    
-137.00  37.00     0.63711    
-137.00  38.00     0.60622    
-137.00  39.00     0.57850    
-137.00  40.00     0.56242    
-137.00  41.00     0.55834    
-137.00  42.00     0.55845    
-137.00  43.00     0.54956    
-137.00  44.00     0.51751    
-137.00  45.00     0.45201    
-137.00  46.00     0.35046    
-137.00  47.00     0.21873    
-137.00  48.00     0.70234E-01
-137.00  49.00    -0.77950E-01
-137.00  50.00    -0.20944    
-137.00  51.00    -0.31244    
-137.00  52.00    -0.38202    
-137.00  53.00    -0.41969    
-137.00  54.00    -0.43122    
-137.00  55.00    -0.42328    
-137.00  56.00    -0.40004    
-137.00  57.00    -0.36140    
-137.00  58.00    -0.30329    
-137.00  59.00    -0.21980    
-137.00  60.00    -0.10706    
-137.00  61.00     0.34277E-01
-137.00  62.00     0.19678    
-137.00  63.00     0.36674    
-137.00  64.00     0.52659    
-137.00  65.00     0.65925    
-137.00  66.00     0.75204    
-137.00  67.00     0.80014    
-137.00  68.00     0.80713    
-137.00  69.00     0.78397    
-137.00  70.00     0.74524    
-137.00  71.00     0.70533    
-137.00  72.00     0.67439    
-137.00  73.00     0.65592    
-137.00  74.00     0.64762    
-137.00  75.00     0.64236    
-137.00  76.00     0.62952    
-137.00  77.00     0.60173    
-137.00  78.00     0.55202    
-137.00  79.00     0.47812    
-137.00  80.00     0.37986    
-137.00  81.00     0.26007    
-137.00  82.00     0.12174    
-137.00  83.00    -0.28475E-01
-137.00  84.00    -0.18410    
-137.00  85.00    -0.33389    
-137.00  86.00    -0.46399    
-137.00  87.00    -0.55848    
-137.00  88.00    -0.60170    
-137.00  89.00    -0.58058    
-136.00 -89.00     0.15791    
-136.00 -88.00     0.22648    
-136.00 -87.00     0.29318    
-136.00 -86.00     0.34594    
-136.00 -85.00     0.37855    
-136.00 -84.00     0.39279    
-136.00 -83.00     0.39756    
-136.00 -82.00     0.39844    
-136.00 -81.00     0.40299    
-136.00 -80.00     0.41059    
-136.00 -79.00     0.41665    
-136.00 -78.00     0.41282    
-136.00 -77.00     0.39201    
-136.00 -76.00     0.35288    
-136.00 -75.00     0.30071    
-136.00 -74.00     0.24567    
-136.00 -73.00     0.20051    
-136.00 -72.00     0.17656    
-136.00 -71.00     0.17867    
-136.00 -70.00     0.20312    
-136.00 -69.00     0.23897    
-136.00 -68.00     0.27028    
-136.00 -67.00     0.28184    
-136.00 -66.00     0.26397    
-136.00 -65.00     0.21599    
-136.00 -64.00     0.14602    
-136.00 -63.00     0.68904E-01
-136.00 -62.00     0.91841E-03
-136.00 -61.00    -0.46136E-01
-136.00 -60.00    -0.68042E-01
-136.00 -59.00    -0.70532E-01
-136.00 -58.00    -0.66913E-01
-136.00 -57.00    -0.73254E-01
-136.00 -56.00    -0.10309    
-136.00 -55.00    -0.16178    
-136.00 -54.00    -0.24453    
-136.00 -53.00    -0.33696    
-136.00 -52.00    -0.41968    
-136.00 -51.00    -0.47417    
-136.00 -50.00    -0.48877    
-136.00 -49.00    -0.46310    
-136.00 -48.00    -0.40840    
-136.00 -47.00    -0.34491    
-136.00 -46.00    -0.29600    
-136.00 -45.00    -0.28085    
-136.00 -44.00    -0.30881    
-136.00 -43.00    -0.37608    
-136.00 -42.00    -0.46614    
-136.00 -41.00    -0.55404    
-136.00 -40.00    -0.61318    
-136.00 -39.00    -0.62234    
-136.00 -38.00    -0.57171    
-136.00 -37.00    -0.46561    
-136.00 -36.00    -0.32163    
-136.00 -35.00    -0.16640    
-136.00 -34.00    -0.29158E-01
-136.00 -33.00     0.65107E-01
-136.00 -32.00     0.10118    
-136.00 -31.00     0.76524E-01
-136.00 -30.00     0.10855E-02
-136.00 -29.00    -0.10589    
-136.00 -28.00    -0.22088    
-136.00 -27.00    -0.32174    
-136.00 -26.00    -0.39255    
-136.00 -25.00    -0.42658    
-136.00 -24.00    -0.42694    
-136.00 -23.00    -0.40484    
-136.00 -22.00    -0.37614    
-136.00 -21.00    -0.35708    
-136.00 -20.00    -0.36012    
-136.00 -19.00    -0.39095    
-136.00 -18.00    -0.44704    
-136.00 -17.00    -0.51817    
-136.00 -16.00    -0.58863    
-136.00 -15.00    -0.64057    
-136.00 -14.00    -0.65779    
-136.00 -13.00    -0.62918    
-136.00 -12.00    -0.55108    
-136.00 -11.00    -0.42811    
-136.00 -10.00    -0.27236    
-136.00  -9.00    -0.10115    
-136.00  -8.00     0.66064E-01
-136.00  -7.00     0.21105    
-136.00  -6.00     0.31965    
-136.00  -5.00     0.38359    
-136.00  -4.00     0.40116    
-136.00  -3.00     0.37659    
-136.00  -2.00     0.31861    
-136.00  -1.00     0.23859    
-136.00   0.00     0.14870    
-136.00   1.00     0.60463E-01
-136.00   2.00    -0.16306E-01
-136.00   3.00    -0.74100E-01
-136.00   4.00    -0.10808    
-136.00   5.00    -0.11630    
-136.00   6.00    -0.99907E-01
-136.00   7.00    -0.63021E-01
-136.00   8.00    -0.12379E-01
-136.00   9.00     0.43641E-01
-136.00  10.00     0.96498E-01
-136.00  11.00     0.13927    
-136.00  12.00     0.16832    
-136.00  13.00     0.18430    
-136.00  14.00     0.19204    
-136.00  15.00     0.19914    
-136.00  16.00     0.21363    
-136.00  17.00     0.24108    
-136.00  18.00     0.28228    
-136.00  19.00     0.33225    
-136.00  20.00     0.38102    
-136.00  21.00     0.41624    
-136.00  22.00     0.42698    
-136.00  23.00     0.40758    
-136.00  24.00     0.36030    
-136.00  25.00     0.29581    
-136.00  26.00     0.23112    
-136.00  27.00     0.18541    
-136.00  28.00     0.17481    
-136.00  29.00     0.20768    
-136.00  30.00     0.28194    
-136.00  31.00     0.38520    
-136.00  32.00     0.49791    
-136.00  33.00     0.59862    
-136.00  34.00     0.66969    
-136.00  35.00     0.70195    
-136.00  36.00     0.69662    
-136.00  37.00     0.66418    
-136.00  38.00     0.62029    
-136.00  39.00     0.58037    
-136.00  40.00     0.55441    
-136.00  41.00     0.54364    
-136.00  42.00     0.54031    
-136.00  43.00     0.53042    
-136.00  44.00     0.49860    
-136.00  45.00     0.43335    
-136.00  46.00     0.33136    
-136.00  47.00     0.19865    
-136.00  48.00     0.49405E-01
-136.00  49.00    -0.98194E-01
-136.00  50.00    -0.22682    
-136.00  51.00    -0.32451    
-136.00  52.00    -0.38709    
-136.00  53.00    -0.41774    
-136.00  54.00    -0.42428    
-136.00  55.00    -0.41520    
-136.00  56.00    -0.39555    
-136.00  57.00    -0.36486    
-136.00  58.00    -0.31730    
-136.00  59.00    -0.24434    
-136.00  60.00    -0.13920    
-136.00  61.00    -0.32117E-03
-136.00  62.00     0.16589    
-136.00  63.00     0.34518    
-136.00  64.00     0.51807    
-136.00  65.00     0.66469    
-136.00  66.00     0.76962    
-136.00  67.00     0.82592    
-136.00  68.00     0.83623    
-136.00  69.00     0.81205    
-136.00  70.00     0.76927    
-136.00  71.00     0.72420    
-136.00  72.00     0.68852    
-136.00  73.00     0.66677    
-136.00  74.00     0.65660    
-136.00  75.00     0.65007    
-136.00  76.00     0.63562    
-136.00  77.00     0.60487    
-136.00  78.00     0.55060    
-136.00  79.00     0.47099    
-136.00  80.00     0.36702    
-136.00  81.00     0.24294    
-136.00  82.00     0.10286    
-136.00  83.00    -0.46147E-01
-136.00  84.00    -0.19788    
-136.00  85.00    -0.34199    
-136.00  86.00    -0.46667    
-136.00  87.00    -0.55734    
-136.00  88.00    -0.59883    
-136.00  89.00    -0.57843    
-135.00 -89.00     0.15772    
-135.00 -88.00     0.22521    
-135.00 -87.00     0.28963    
-135.00 -86.00     0.33880    
-135.00 -85.00     0.36681    
-135.00 -84.00     0.37601    
-135.00 -83.00     0.37601    
-135.00 -82.00     0.37347    
-135.00 -81.00     0.37690    
-135.00 -80.00     0.38640    
-135.00 -79.00     0.39755    
-135.00 -78.00     0.40135    
-135.00 -77.00     0.38954    
-135.00 -76.00     0.35891    
-135.00 -75.00     0.31278    
-135.00 -74.00     0.25978    
-135.00 -73.00     0.21188    
-135.00 -72.00     0.18082    
-135.00 -71.00     0.17312    
-135.00 -70.00     0.18754    
-135.00 -69.00     0.21592    
-135.00 -68.00     0.24456    
-135.00 -67.00     0.25925    
-135.00 -66.00     0.24964    
-135.00 -65.00     0.21266    
-135.00 -64.00     0.15315    
-135.00 -63.00     0.82686E-01
-135.00 -62.00     0.15125E-01
-135.00 -61.00    -0.38049E-01
-135.00 -60.00    -0.70616E-01
-135.00 -59.00    -0.84308E-01
-135.00 -58.00    -0.87322E-01
-135.00 -57.00    -0.91052E-01
-135.00 -56.00    -0.10615    
-135.00 -55.00    -0.13822    
-135.00 -54.00    -0.18594    
-135.00 -53.00    -0.24121    
-135.00 -52.00    -0.29226    
-135.00 -51.00    -0.32760    
-135.00 -50.00    -0.34019    
-135.00 -49.00    -0.33059    
-135.00 -48.00    -0.30672    
-135.00 -47.00    -0.28232    
-135.00 -46.00    -0.27238    
-135.00 -45.00    -0.28813    
-135.00 -44.00    -0.33327    
-135.00 -43.00    -0.40181    
-135.00 -42.00    -0.47894    
-135.00 -41.00    -0.54441    
-135.00 -40.00    -0.57774    
-135.00 -39.00    -0.56344    
-135.00 -38.00    -0.49547    
-135.00 -37.00    -0.37926    
-135.00 -36.00    -0.23098    
-135.00 -35.00    -0.74374E-01
-135.00 -34.00     0.64160E-01
-135.00 -33.00     0.16102    
-135.00 -32.00     0.20009    
-135.00 -31.00     0.17577    
-135.00 -30.00     0.93692E-01
-135.00 -29.00    -0.30839E-01
-135.00 -28.00    -0.17624    
-135.00 -27.00    -0.31911    
-135.00 -26.00    -0.43884    
-135.00 -25.00    -0.52142    
-135.00 -24.00    -0.56165    
-135.00 -23.00    -0.56360    
-135.00 -22.00    -0.53899    
-135.00 -21.00    -0.50398    
-135.00 -20.00    -0.47518    
-135.00 -19.00    -0.46543    
-135.00 -18.00    -0.48065    
-135.00 -17.00    -0.51816    
-135.00 -16.00    -0.56714    
-135.00 -15.00    -0.61104    
-135.00 -14.00    -0.63148    
-135.00 -13.00    -0.61272    
-135.00 -12.00    -0.54562    
-135.00 -11.00    -0.43020    
-135.00 -10.00    -0.27607    
-135.00  -9.00    -0.10076    
-135.00  -8.00     0.73787E-01
-135.00  -7.00     0.22546    
-135.00  -6.00     0.33616    
-135.00  -5.00     0.39485    
-135.00  -4.00     0.39888    
-135.00  -3.00     0.35356    
-135.00  -2.00     0.27031    
-135.00  -1.00     0.16399    
-135.00   0.00     0.50207E-01
-135.00   1.00    -0.56797E-01
-135.00   2.00    -0.14557    
-135.00   3.00    -0.20802    
-135.00   4.00    -0.23958    
-135.00   5.00    -0.23917    
-135.00   6.00    -0.20915    
-135.00   7.00    -0.15520    
-135.00   8.00    -0.86055E-01
-135.00   9.00    -0.12501E-01
-135.00  10.00     0.54156E-01
-135.00  11.00     0.10427    
-135.00  12.00     0.13212    
-135.00  13.00     0.13757    
-135.00  14.00     0.12649    
-135.00  15.00     0.10957    
-135.00  16.00     0.99557E-01
-135.00  17.00     0.10754    
-135.00  18.00     0.13947    
-135.00  19.00     0.19386    
-135.00  20.00     0.26175    
-135.00  21.00     0.32888    
-135.00  22.00     0.37992    
-135.00  23.00     0.40328    
-135.00  24.00     0.39510    
-135.00  25.00     0.36110    
-135.00  26.00     0.31550    
-135.00  27.00     0.27723    
-135.00  28.00     0.26440    
-135.00  29.00     0.28875    
-135.00  30.00     0.35190    
-135.00  31.00     0.44449    
-135.00  32.00     0.54866    
-135.00  33.00     0.64317    
-135.00  34.00     0.70947    
-135.00  35.00     0.73701    
-135.00  36.00     0.72585    
-135.00  37.00     0.68598    
-135.00  38.00     0.63346    
-135.00  39.00     0.58476    
-135.00  40.00     0.55107    
-135.00  41.00     0.53459    
-135.00  42.00     0.52787    
-135.00  43.00     0.51659    
-135.00  44.00     0.48456    
-135.00  45.00     0.41950    
-135.00  46.00     0.31760    
-135.00  47.00     0.18509    
-135.00  48.00     0.36875E-01
-135.00  49.00    -0.10794    
-135.00  50.00    -0.23128    
-135.00  51.00    -0.32120    
-135.00  52.00    -0.37442    
-135.00  53.00    -0.39588    
-135.00  54.00    -0.39557    
-135.00  55.00    -0.38385    
-135.00  56.00    -0.36675    
-135.00  57.00    -0.34351    
-135.00  58.00    -0.30666    
-135.00  59.00    -0.24512    
-135.00  60.00    -0.14921    
-135.00  61.00    -0.15048E-01
-135.00  62.00     0.15209    
-135.00  63.00     0.33760    
-135.00  64.00     0.52036    
-135.00  65.00     0.67792    
-135.00  66.00     0.79232    
-135.00  67.00     0.85459    
-135.00  68.00     0.86649    
-135.00  69.00     0.84001    
-135.00  70.00     0.79229    
-135.00  71.00     0.74149    
-135.00  72.00     0.70074    
-135.00  73.00     0.67552    
-135.00  74.00     0.66341    
-135.00  75.00     0.65563    
-135.00  76.00     0.63972    
-135.00  77.00     0.60624    
-135.00  78.00     0.54772    
-135.00  79.00     0.46274    
-135.00  80.00     0.35343    
-135.00  81.00     0.22539    
-135.00  82.00     0.83828E-01
-135.00  83.00    -0.63768E-01
-135.00  84.00    -0.21149    
-135.00  85.00    -0.34992    
-135.00  86.00    -0.46919    
-135.00  87.00    -0.55608    
-135.00  88.00    -0.59588    
-135.00  89.00    -0.57624    
-134.00 -89.00     0.15751    
-134.00 -88.00     0.22388    
-134.00 -87.00     0.28599    
-134.00 -86.00     0.33156    
-134.00 -85.00     0.35492    
-134.00 -84.00     0.35901    
-134.00 -83.00     0.35395    
-134.00 -82.00     0.34776    
-134.00 -81.00     0.34974    
-134.00 -80.00     0.36076    
-134.00 -79.00     0.37672    
-134.00 -78.00     0.38806    
-134.00 -77.00     0.38546    
-134.00 -76.00     0.36373    
-134.00 -75.00     0.32421    
-134.00 -74.00     0.27384    
-134.00 -73.00     0.22365    
-134.00 -72.00     0.18560    
-134.00 -71.00     0.16784    
-134.00 -70.00     0.17153    
-134.00 -69.00     0.19142    
-134.00 -68.00     0.21620    
-134.00 -67.00     0.23293    
-134.00 -66.00     0.23090    
-134.00 -65.00     0.20487    
-134.00 -64.00     0.15664    
-134.00 -63.00     0.94459E-01
-134.00 -62.00     0.29717E-01
-134.00 -61.00    -0.26632E-01
-134.00 -60.00    -0.66715E-01
-134.00 -59.00    -0.88614E-01
-134.00 -58.00    -0.95788E-01
-134.00 -57.00    -0.95277E-01
-134.00 -56.00    -0.95039E-01
-134.00 -55.00    -0.10102    
-134.00 -54.00    -0.11530    
-134.00 -53.00    -0.13584    
-134.00 -52.00    -0.15811    
-134.00 -51.00    -0.17723    
-134.00 -50.00    -0.19036    
-134.00 -49.00    -0.19851    
-134.00 -48.00    -0.20609    
-134.00 -47.00    -0.22023    
-134.00 -46.00    -0.24765    
-134.00 -45.00    -0.29210    
-134.00 -44.00    -0.35211    
-134.00 -43.00    -0.42023    
-134.00 -42.00    -0.48397    
-134.00 -41.00    -0.52823    
-134.00 -40.00    -0.53874    
-134.00 -39.00    -0.50551    
-134.00 -38.00    -0.42569    
-134.00 -37.00    -0.30489    
-134.00 -36.00    -0.15686    
-134.00 -35.00    -0.15518E-02
-134.00 -34.00     0.13813    
-134.00 -33.00     0.24017    
-134.00 -32.00     0.28727    
-134.00 -31.00     0.27003    
-134.00 -30.00     0.18877    
-134.00 -29.00     0.53838E-01
-134.00 -28.00    -0.11597    
-134.00 -27.00    -0.29649    
-134.00 -26.00    -0.46239    
-134.00 -25.00    -0.59185    
-134.00 -24.00    -0.67062    
-134.00 -23.00    -0.69468    
-134.00 -22.00    -0.67083    
-134.00 -21.00    -0.61481    
-134.00 -20.00    -0.54742    
-134.00 -19.00    -0.48934    
-134.00 -18.00    -0.45591    
-134.00 -17.00    -0.45326    
-134.00 -16.00    -0.47670    
-134.00 -15.00    -0.51200    
-134.00 -14.00    -0.53921    
-134.00 -13.00    -0.53807    
-134.00 -12.00    -0.49362    
-134.00 -11.00    -0.40051    
-134.00 -10.00    -0.26480    
-134.00  -9.00    -0.10293    
-134.00  -8.00     0.61984E-01
-134.00  -7.00     0.20533    
-134.00  -6.00     0.30634    
-134.00  -5.00     0.35224    
-134.00  -4.00     0.34024    
-134.00  -3.00     0.27711    
-134.00  -2.00     0.17679    
-134.00  -1.00     0.56912E-01
-134.00   0.00    -0.64780E-01
-134.00   1.00    -0.17314    
-134.00   2.00    -0.25713    
-134.00   3.00    -0.31015    
-134.00   4.00    -0.32967    
-134.00   5.00    -0.31656    
-134.00   6.00    -0.27470    
-134.00   7.00    -0.21081    
-134.00   8.00    -0.13424    
-134.00   9.00    -0.56384E-01
-134.00  10.00     0.10717E-01
-134.00  11.00     0.56525E-01
-134.00  12.00     0.74568E-01
-134.00  13.00     0.64606E-01
-134.00  14.00     0.33566E-01
-134.00  15.00    -0.53990E-02
-134.00  16.00    -0.35809E-01
-134.00  17.00    -0.42131E-01
-134.00  18.00    -0.14281E-01
-134.00  19.00     0.49058E-01
-134.00  20.00     0.13947    
-134.00  21.00     0.24069    
-134.00  22.00     0.33307    
-134.00  23.00     0.39922    
-134.00  24.00     0.42933    
-134.00  25.00     0.42430    
-134.00  26.00     0.39562    
-134.00  27.00     0.36206    
-134.00  28.00     0.34383    
-134.00  29.00     0.35634    
-134.00  30.00     0.40528    
-134.00  31.00     0.48472    
-134.00  32.00     0.57890    
-134.00  33.00     0.66706    
-134.00  34.00     0.72987    
-134.00  35.00     0.75523    
-134.00  36.00     0.74170    
-134.00  37.00     0.69834    
-134.00  38.00     0.64111    
-134.00  39.00     0.58708    
-134.00  40.00     0.54842    
-134.00  41.00     0.52820    
-134.00  42.00     0.51940    
-134.00  43.00     0.50757    
-134.00  44.00     0.47602    
-134.00  45.00     0.41190    
-134.00  46.00     0.31112    
-134.00  47.00     0.18015    
-134.00  48.00     0.34589E-01
-134.00  49.00    -0.10557    
-134.00  50.00    -0.22163    
-134.00  51.00    -0.30179    
-134.00  52.00    -0.34369    
-134.00  53.00    -0.35414    
-134.00  54.00    -0.34531    
-134.00  55.00    -0.32954    
-134.00  56.00    -0.31394    
-134.00  57.00    -0.29761    
-134.00  58.00    -0.27155    
-134.00  59.00    -0.22226    
-134.00  60.00    -0.13720    
-134.00  61.00    -0.10105E-01
-134.00  62.00     0.15501    
-134.00  63.00     0.34344    
-134.00  64.00     0.53267    
-134.00  65.00     0.69793    
-134.00  66.00     0.81894    
-134.00  67.00     0.88484    
-134.00  68.00     0.89661    
-134.00  69.00     0.86664    
-134.00  70.00     0.81327    
-134.00  71.00     0.75634    
-134.00  72.00     0.71041    
-134.00  73.00     0.68175    
-134.00  74.00     0.66781    
-134.00  75.00     0.65894    
-134.00  76.00     0.64178    
-134.00  77.00     0.60583    
-134.00  78.00     0.54341    
-134.00  79.00     0.45342    
-134.00  80.00     0.33911    
-134.00  81.00     0.20746    
-134.00  82.00     0.64700E-01
-134.00  83.00    -0.81293E-01
-134.00  84.00    -0.22488    
-134.00  85.00    -0.35764    
-134.00  86.00    -0.47154    
-134.00  87.00    -0.55470    
-134.00  88.00    -0.59285    
-134.00  89.00    -0.57402    
-133.00 -89.00     0.15728    
-133.00 -88.00     0.22250    
-133.00 -87.00     0.28228    
-133.00 -86.00     0.32424    
-133.00 -85.00     0.34292    
-133.00 -84.00     0.34182    
-133.00 -83.00     0.33147    
-133.00 -82.00     0.32141    
-133.00 -81.00     0.32158    
-133.00 -80.00     0.33375    
-133.00 -79.00     0.35421    
-133.00 -78.00     0.37294    
-133.00 -77.00     0.37965    
-133.00 -76.00     0.36718    
-133.00 -75.00     0.33479    
-133.00 -74.00     0.28767    
-133.00 -73.00     0.23571    
-133.00 -72.00     0.19095    
-133.00 -71.00     0.16298    
-133.00 -70.00     0.15536    
-133.00 -69.00     0.16575    
-133.00 -68.00     0.18543    
-133.00 -67.00     0.20298    
-133.00 -66.00     0.20765    
-133.00 -65.00     0.19231    
-133.00 -64.00     0.15608    
-133.00 -63.00     0.10388    
-133.00 -62.00     0.44599E-01
-133.00 -61.00    -0.11567E-01
-133.00 -60.00    -0.55528E-01
-133.00 -59.00    -0.82214E-01
-133.00 -58.00    -0.90876E-01
-133.00 -57.00    -0.84659E-01
-133.00 -56.00    -0.69124E-01
-133.00 -55.00    -0.50610E-01
-133.00 -54.00    -0.34400E-01
-133.00 -53.00    -0.24115E-01
-133.00 -52.00    -0.21845E-01
-133.00 -51.00    -0.28634E-01
-133.00 -50.00    -0.45179E-01
-133.00 -49.00    -0.72452E-01
-133.00 -48.00    -0.11117    
-133.00 -47.00    -0.16191    
-133.00 -46.00    -0.22359    
-133.00 -45.00    -0.29308    
-133.00 -44.00    -0.36466    
-133.00 -43.00    -0.43022    
-133.00 -42.00    -0.48028    
-133.00 -41.00    -0.50530    
-133.00 -40.00    -0.49723    
-133.00 -39.00    -0.45118    
-133.00 -38.00    -0.36671    
-133.00 -37.00    -0.24857    
-133.00 -36.00    -0.10696    
-133.00 -35.00     0.42997E-01
-133.00 -34.00     0.18259    
-133.00 -33.00     0.29171    
-133.00 -32.00     0.35175    
-133.00 -31.00     0.34894    
-133.00 -30.00     0.27745    
-133.00 -29.00     0.14166    
-133.00 -28.00    -0.43305E-01
-133.00 -27.00    -0.25316    
-133.00 -26.00    -0.45819    
-133.00 -25.00    -0.62871    
-133.00 -24.00    -0.74105    
-133.00 -23.00    -0.78263    
-133.00 -22.00    -0.75482    
-133.00 -21.00    -0.67260    
-133.00 -20.00    -0.56097    
-133.00 -19.00    -0.44869    
-133.00 -18.00    -0.36120    
-133.00 -17.00    -0.31419    
-133.00 -16.00    -0.30995    
-133.00 -15.00    -0.33731    
-133.00 -14.00    -0.37521    
-133.00 -13.00    -0.39904    
-133.00 -12.00    -0.38779    
-133.00 -11.00    -0.33014    
-133.00 -10.00    -0.22773    
-133.00  -9.00    -0.94773E-01
-133.00  -8.00     0.45718E-01
-133.00  -7.00     0.16791    
-133.00  -6.00     0.24961    
-133.00  -5.00     0.27736    
-133.00  -4.00     0.24895    
-133.00  -3.00     0.17290    
-133.00  -2.00     0.65409E-01
-133.00  -1.00    -0.54036E-01
-133.00   0.00    -0.16703    
-133.00   1.00    -0.25944    
-133.00   2.00    -0.32281    
-133.00   3.00    -0.35409    
-133.00   4.00    -0.35439    
-133.00   5.00    -0.32748    
-133.00   6.00    -0.27879    
-133.00   7.00    -0.21514    
-133.00   8.00    -0.14483    
-133.00   9.00    -0.77643E-01
-133.00  10.00    -0.24062E-01
-133.00  11.00     0.64668E-02
-133.00  12.00     0.80635E-02
-133.00  13.00    -0.19130E-01
-133.00  14.00    -0.67537E-01
-133.00  15.00    -0.12267    
-133.00  16.00    -0.16585    
-133.00  17.00    -0.17882    
-133.00  18.00    -0.14878    
-133.00  19.00    -0.72599E-01
-133.00  20.00     0.41472E-01
-133.00  21.00     0.17532    
-133.00  22.00     0.30552    
-133.00  23.00     0.40970    
-133.00  24.00     0.47284    
-133.00  25.00     0.49161    
-133.00  26.00     0.47517    
-133.00  27.00     0.44223    
-133.00  28.00     0.41510    
-133.00  29.00     0.41273    
-133.00  30.00     0.44480    
-133.00  31.00     0.50885    
-133.00  32.00     0.59132    
-133.00  33.00     0.67212    
-133.00  34.00     0.73127    
-133.00  35.00     0.75524    
-133.00  36.00     0.74104    
-133.00  37.00     0.69666    
-133.00  38.00     0.63768    
-133.00  39.00     0.58153    
-133.00  40.00     0.54104    
-133.00  41.00     0.51997    
-133.00  42.00     0.51163    
-133.00  43.00     0.50143    
-133.00  44.00     0.47223    
-133.00  45.00     0.41074    
-133.00  46.00     0.31260    
-133.00  47.00     0.18467    
-133.00  48.00     0.43249E-01
-133.00  49.00    -0.90771E-01
-133.00  50.00    -0.19810    
-133.00  51.00    -0.26701    
-133.00  52.00    -0.29614    
-133.00  53.00    -0.29411    
-133.00  54.00    -0.27535    
-133.00  55.00    -0.25422    
-133.00  56.00    -0.23908    
-133.00  57.00    -0.22902    
-133.00  58.00    -0.21374    
-133.00  59.00    -0.17740    
-133.00  60.00    -0.10468    
-133.00  61.00     0.13058E-01
-133.00  62.00     0.17323    
-133.00  63.00     0.36124    
-133.00  64.00     0.55346    
-133.00  65.00     0.72313    
-133.00  66.00     0.84787    
-133.00  67.00     0.91510    
-133.00  68.00     0.92509    
-133.00  69.00     0.89060    
-133.00  70.00     0.83108    
-133.00  71.00     0.76789    
-133.00  72.00     0.71690    
-133.00  73.00     0.68504    
-133.00  74.00     0.66954    
-133.00  75.00     0.65987    
-133.00  76.00     0.64177    
-133.00  77.00     0.60368    
-133.00  78.00     0.53771    
-133.00  79.00     0.44306    
-133.00  80.00     0.32413    
-133.00  81.00     0.18920    
-133.00  82.00     0.45517E-01
-133.00  83.00    -0.98676E-01
-133.00  84.00    -0.23800    
-133.00  85.00    -0.36514    
-133.00  86.00    -0.47370    
-133.00  87.00    -0.55320    
-133.00  88.00    -0.58975    
-133.00  89.00    -0.57177    
-132.00 -89.00     0.15701    
-132.00 -88.00     0.22105    
-132.00 -87.00     0.27850    
-132.00 -86.00     0.31684    
-132.00 -85.00     0.33085    
-132.00 -84.00     0.32450    
-132.00 -83.00     0.30865    
-132.00 -82.00     0.29450    
-132.00 -81.00     0.29254    
-132.00 -80.00     0.30544    
-132.00 -79.00     0.33006    
-132.00 -78.00     0.35597    
-132.00 -77.00     0.37202    
-132.00 -76.00     0.36909    
-132.00 -75.00     0.34435    
-132.00 -74.00     0.30110    
-132.00 -73.00     0.24797    
-132.00 -72.00     0.19690    
-132.00 -71.00     0.15872    
-132.00 -70.00     0.13931    
-132.00 -69.00     0.13923    
-132.00 -68.00     0.15252    
-132.00 -67.00     0.16953    
-132.00 -66.00     0.17977    
-132.00 -65.00     0.17465    
-132.00 -64.00     0.15094    
-132.00 -63.00     0.11035    
-132.00 -62.00     0.59268E-01
-132.00 -61.00     0.68737E-02
-132.00 -60.00    -0.37026E-01
-132.00 -59.00    -0.64815E-01
-132.00 -58.00    -0.72212E-01
-132.00 -57.00    -0.59048E-01
-132.00 -56.00    -0.28855E-01
-132.00 -55.00     0.11603E-01
-132.00 -54.00     0.54112E-01
-132.00 -53.00     0.90026E-01
-132.00 -52.00     0.11145    
-132.00 -51.00     0.11232    
-132.00 -50.00     0.89207E-01
-132.00 -49.00     0.41739E-01
-132.00 -48.00    -0.26979E-01
-132.00 -47.00    -0.11119    
-132.00 -46.00    -0.20263    
-132.00 -45.00    -0.29227    
-132.00 -44.00    -0.37107    
-132.00 -43.00    -0.43129    
-132.00 -42.00    -0.46714    
-132.00 -41.00    -0.47501    
-132.00 -40.00    -0.45301    
-132.00 -39.00    -0.40087    
-132.00 -38.00    -0.31969    
-132.00 -37.00    -0.21234    
-132.00 -36.00    -0.84357E-01
-132.00 -35.00     0.54944E-01
-132.00 -34.00     0.19182    
-132.00 -33.00     0.30848    
-132.00 -32.00     0.38504    
-132.00 -31.00     0.40303    
-132.00 -30.00     0.34987    
-132.00 -29.00     0.22319    
-132.00 -28.00     0.33588E-01
-132.00 -27.00    -0.19526    
-132.00 -26.00    -0.42984    
-132.00 -25.00    -0.63297    
-132.00 -24.00    -0.77168    
-132.00 -23.00    -0.82473    
-132.00 -22.00    -0.78789    
-132.00 -21.00    -0.67520    
-132.00 -20.00    -0.51567    
-132.00 -19.00    -0.34618    
-132.00 -18.00    -0.20232    
-132.00 -17.00    -0.10965    
-132.00 -16.00    -0.77786E-01
-132.00 -15.00    -0.98928E-01
-132.00 -14.00    -0.15120    
-132.00 -13.00    -0.20574    
-132.00 -12.00    -0.23541    
-132.00 -11.00    -0.22259    
-132.00 -10.00    -0.16394    
-132.00  -9.00    -0.70678E-01
-132.00  -8.00     0.35191E-01
-132.00  -7.00     0.12764    
-132.00  -6.00     0.18402    
-132.00  -5.00     0.19107    
-132.00  -4.00     0.14775    
-132.00  -3.00     0.64505E-01
-132.00  -2.00    -0.40491E-01
-132.00  -1.00    -0.14672    
-132.00   0.00    -0.23646    
-132.00   1.00    -0.29829    
-132.00   2.00    -0.32821    
-132.00   3.00    -0.32849    
-132.00   4.00    -0.30521    
-132.00   5.00    -0.26567    
-132.00   6.00    -0.21669    
-132.00   7.00    -0.16409    
-132.00   8.00    -0.11334    
-132.00   9.00    -0.70430E-01
-132.00  10.00    -0.42080E-01
-132.00  11.00    -0.34802E-01
-132.00  12.00    -0.52787E-01
-132.00  13.00    -0.95339E-01
-132.00  14.00    -0.15500    
-132.00  15.00    -0.21747    
-132.00  16.00    -0.26387    
-132.00  17.00    -0.27515    
-132.00  18.00    -0.23745    
-132.00  19.00    -0.14683    
-132.00  20.00    -0.11528E-01
-132.00  21.00     0.14902    
-132.00  22.00     0.30871    
-132.00  23.00     0.44153    
-132.00  24.00     0.52857    
-132.00  25.00     0.56326    
-132.00  26.00     0.55295    
-132.00  27.00     0.51634    
-132.00  28.00     0.47751    
-132.00  29.00     0.45842    
-132.00  30.00     0.47220    
-132.00  31.00     0.51942    
-132.00  32.00     0.58856    
-132.00  33.00     0.66028    
-132.00  34.00     0.71421    
-132.00  35.00     0.73575    
-132.00  36.00     0.72069    
-132.00  37.00     0.67611    
-132.00  38.00     0.61727    
-132.00  39.00     0.56175    
-132.00  40.00     0.52284    
-132.00  41.00     0.50461    
-132.00  42.00     0.50040    
-132.00  43.00     0.49525    
-132.00  44.00     0.47139    
-132.00  45.00     0.41501    
-132.00  46.00     0.32154    
-132.00  47.00     0.19823    
-132.00  48.00     0.62191E-01
-132.00  49.00    -0.64657E-01
-132.00  50.00    -0.16233    
-132.00  51.00    -0.21909    
-132.00  52.00    -0.23448    
-132.00  53.00    -0.21890    
-132.00  54.00    -0.18903    
-132.00  55.00    -0.16137    
-132.00  56.00    -0.14565    
-132.00  57.00    -0.14113    
-132.00  58.00    -0.13640    
-132.00  59.00    -0.11350    
-132.00  60.00    -0.54411E-01
-132.00  61.00     0.51895E-01
-132.00  62.00     0.20436    
-132.00  63.00     0.38875    
-132.00  64.00     0.58060    
-132.00  65.00     0.75149    
-132.00  66.00     0.87717    
-132.00  67.00     0.94357    
-132.00  68.00     0.95033    
-132.00  69.00     0.91051    
-132.00  70.00     0.84461    
-132.00  71.00     0.77528    
-132.00  72.00     0.71961    
-132.00  73.00     0.68501    
-132.00  74.00     0.66841    
-132.00  75.00     0.65834    
-132.00  76.00     0.63967    
-132.00  77.00     0.59981    
-132.00  78.00     0.53065    
-132.00  79.00     0.43172    
-132.00  80.00     0.30853    
-132.00  81.00     0.17065    
-132.00  82.00     0.26322E-01
-132.00  83.00    -0.11587    
-132.00  84.00    -0.25083    
-132.00  85.00    -0.37238    
-132.00  86.00    -0.47565    
-132.00  87.00    -0.55154    
-132.00  88.00    -0.58656    
-132.00  89.00    -0.56948    
-131.00 -89.00     0.15672    
-131.00 -88.00     0.21954    
-131.00 -87.00     0.27465    
-131.00 -86.00     0.30939    
-131.00 -85.00     0.31874    
-131.00 -84.00     0.30712    
-131.00 -83.00     0.28560    
-131.00 -82.00     0.26714    
-131.00 -81.00     0.26273    
-131.00 -80.00     0.27595    
-131.00 -79.00     0.30432    
-131.00 -78.00     0.33716    
-131.00 -77.00     0.36249    
-131.00 -76.00     0.36933    
-131.00 -75.00     0.35270    
-131.00 -74.00     0.31397    
-131.00 -73.00     0.26034    
-131.00 -72.00     0.20347    
-131.00 -71.00     0.15520    
-131.00 -70.00     0.12366    
-131.00 -69.00     0.11223    
-131.00 -68.00     0.11779    
-131.00 -67.00     0.13274    
-131.00 -66.00     0.14719    
-131.00 -65.00     0.15154    
-131.00 -64.00     0.14061    
-131.00 -63.00     0.11305    
-131.00 -62.00     0.72818E-01
-131.00 -61.00     0.27811E-01
-131.00 -60.00    -0.11988E-01
-131.00 -59.00    -0.37121E-01
-131.00 -58.00    -0.40555E-01
-131.00 -57.00    -0.19473E-01
-131.00 -56.00     0.24173E-01
-131.00 -55.00     0.83192E-01
-131.00 -54.00     0.14680    
-131.00 -53.00     0.20208    
-131.00 -52.00     0.23635    
-131.00 -51.00     0.23960    
-131.00 -50.00     0.20656    
-131.00 -49.00     0.13808    
-131.00 -48.00     0.41172E-01
-131.00 -47.00    -0.72410E-01
-131.00 -46.00    -0.18808    
-131.00 -45.00    -0.29187    
-131.00 -44.00    -0.37262    
-131.00 -43.00    -0.42393    
-131.00 -42.00    -0.44443    
-131.00 -41.00    -0.43671    
-131.00 -40.00    -0.40494    
-131.00 -39.00    -0.35299    
-131.00 -38.00    -0.28273    
-131.00 -37.00    -0.19420    
-131.00 -36.00    -0.87348E-01
-131.00 -35.00     0.35190E-01
-131.00 -34.00     0.16532    
-131.00 -33.00     0.28802    
-131.00 -32.00     0.38235    
-131.00 -31.00     0.42512    
-131.00 -30.00     0.39672    
-131.00 -29.00     0.28753    
-131.00 -28.00     0.10302    
-131.00 -27.00    -0.13451    
-131.00 -26.00    -0.38848    
-131.00 -25.00    -0.61492    
-131.00 -24.00    -0.77210    
-131.00 -23.00    -0.83052    
-131.00 -22.00    -0.78049    
-131.00 -21.00    -0.63500    
-131.00 -20.00    -0.42688    
-131.00 -19.00    -0.20076    
-131.00 -18.00    -0.20614E-02
-131.00 -17.00     0.13413    
-131.00 -16.00     0.19111    
-131.00 -15.00     0.17338    
-131.00 -14.00     0.10365    
-131.00 -13.00     0.14976E-01
-131.00 -12.00    -0.59395E-01
-131.00 -11.00    -0.95566E-01
-131.00 -10.00    -0.85049E-01
-131.00  -9.00    -0.35843E-01
-131.00  -8.00     0.31491E-01
-131.00  -7.00     0.91216E-01
-131.00  -6.00     0.12080    
-131.00  -5.00     0.10765    
-131.00  -4.00     0.52263E-01
-131.00  -3.00    -0.32840E-01
-131.00  -2.00    -0.12772    
-131.00  -1.00    -0.21137    
-131.00   0.00    -0.26766    
-131.00   1.00    -0.28905    
-131.00   2.00    -0.27728    
-131.00   3.00    -0.24110    
-131.00   4.00    -0.19245    
-131.00   5.00    -0.14253    
-131.00   6.00    -0.99181E-01
-131.00   7.00    -0.66302E-01
-131.00   8.00    -0.45023E-01
-131.00   9.00    -0.35707E-01
-131.00  10.00    -0.39534E-01
-131.00  11.00    -0.58710E-01
-131.00  12.00    -0.95046E-01
-131.00  13.00    -0.14747    
-131.00  14.00    -0.20970    
-131.00  15.00    -0.26934    
-131.00  16.00    -0.30937    
-131.00  17.00    -0.31197    
-131.00  18.00    -0.26377    
-131.00  19.00    -0.16071    
-131.00  20.00    -0.10938E-01
-131.00  21.00     0.16578    
-131.00  22.00     0.34226    
-131.00  23.00     0.49062    
-131.00  24.00     0.58978    
-131.00  25.00     0.63114    
-131.00  26.00     0.62076    
-131.00  27.00     0.57725    
-131.00  28.00     0.52577    
-131.00  29.00     0.49029    
-131.00  30.00     0.48634    
-131.00  31.00     0.51675    
-131.00  32.00     0.57158    
-131.00  33.00     0.63229    
-131.00  34.00     0.67849    
-131.00  35.00     0.69511    
-131.00  36.00     0.67738    
-131.00  37.00     0.63201    
-131.00  38.00     0.57419    
-131.00  39.00     0.52168    
-131.00  40.00     0.48791    
-131.00  41.00     0.47687    
-131.00  42.00     0.48141    
-131.00  43.00     0.48570    
-131.00  44.00     0.47103    
-131.00  45.00     0.42283    
-131.00  46.00     0.33630    
-131.00  47.00     0.21914    
-131.00  48.00     0.89426E-01
-131.00  49.00    -0.29693E-01
-131.00  50.00    -0.11735    
-131.00  51.00    -0.16159    
-131.00  52.00    -0.16274    
-131.00  53.00    -0.13291    
-131.00  54.00    -0.90991E-01
-131.00  55.00    -0.55726E-01
-131.00  56.00    -0.38330E-01
-131.00  57.00    -0.38490E-01
-131.00  58.00    -0.43880E-01
-131.00  59.00    -0.34623E-01
-131.00  60.00     0.98737E-02
-131.00  61.00     0.10299    
-131.00  62.00     0.24532    
-131.00  63.00     0.42316    
-131.00  64.00     0.61155    
-131.00  65.00     0.78069    
-131.00  66.00     0.90473    
-131.00  67.00     0.96839    
-131.00  68.00     0.97070    
-131.00  69.00     0.92503    
-131.00  70.00     0.85277    
-131.00  71.00     0.77769    
-131.00  72.00     0.71797    
-131.00  73.00     0.68130    
-131.00  74.00     0.66422    
-131.00  75.00     0.65429    
-131.00  76.00     0.63549    
-131.00  77.00     0.59424    
-131.00  78.00     0.52228    
-131.00  79.00     0.41943    
-131.00  80.00     0.29235    
-131.00  81.00     0.15187    
-131.00  82.00     0.71587E-02
-131.00  83.00    -0.13285    
-131.00  84.00    -0.26332    
-131.00  85.00    -0.37934    
-131.00  86.00    -0.47738    
-131.00  87.00    -0.54973    
-131.00  88.00    -0.58329    
-131.00  89.00    -0.56715    
-130.00 -89.00     0.15641    
-130.00 -88.00     0.21798    
-130.00 -87.00     0.27074    
-130.00 -86.00     0.30190    
-130.00 -85.00     0.30663    
-130.00 -84.00     0.28971    
-130.00 -83.00     0.26241    
-130.00 -82.00     0.23946    
-130.00 -81.00     0.23227    
-130.00 -80.00     0.24540    
-130.00 -79.00     0.27710    
-130.00 -78.00     0.31654    
-130.00 -77.00     0.35103    
-130.00 -76.00     0.36778    
-130.00 -75.00     0.35969    
-130.00 -74.00     0.32613    
-130.00 -73.00     0.27273    
-130.00 -72.00     0.21070    
-130.00 -71.00     0.15261    
-130.00 -70.00     0.10871    
-130.00 -69.00     0.85121E-01
-130.00 -68.00     0.81629E-01
-130.00 -67.00     0.92880E-01
-130.00 -66.00     0.10993    
-130.00 -65.00     0.12273    
-130.00 -64.00     0.12442    
-130.00 -63.00     0.11098    
-130.00 -62.00     0.83997E-01
-130.00 -61.00     0.49807E-01
-130.00 -60.00     0.18026E-01
-130.00 -59.00    -0.81094E-03
-130.00 -58.00     0.22300E-02
-130.00 -57.00     0.31877E-01
-130.00 -56.00     0.87274E-01
-130.00 -55.00     0.16080    
-130.00 -54.00     0.23953    
-130.00 -53.00     0.30717    
-130.00 -52.00     0.34733    
-130.00 -51.00     0.34725    
-130.00 -50.00     0.30084    
-130.00 -49.00     0.21074    
-130.00 -48.00     0.87917E-01
-130.00 -47.00    -0.50292E-01
-130.00 -46.00    -0.18390    
-130.00 -45.00    -0.29511    
-130.00 -44.00    -0.37178    
-130.00 -43.00    -0.40984    
-130.00 -42.00    -0.41296    
-130.00 -41.00    -0.39017    
-130.00 -40.00    -0.35158    
-130.00 -39.00    -0.30472    
-130.00 -38.00    -0.25161    
-130.00 -37.00    -0.18880    
-130.00 -36.00    -0.10998    
-130.00 -35.00    -0.10484E-01
-130.00 -34.00     0.10775    
-130.00 -33.00     0.23296    
-130.00 -32.00     0.34350    
-130.00 -31.00     0.41171    
-130.00 -30.00     0.41108    
-130.00 -29.00     0.32468    
-130.00 -28.00     0.15247    
-130.00 -27.00    -0.85202E-01
-130.00 -26.00    -0.34956    
-130.00 -25.00    -0.59078    
-130.00 -24.00    -0.75932    
-130.00 -23.00    -0.81818    
-130.00 -22.00    -0.75267    
-130.00 -21.00    -0.57484    
-130.00 -20.00    -0.32102    
-130.00 -19.00    -0.42960E-01
-130.00 -18.00     0.20491    
-130.00 -17.00     0.37882    
-130.00 -16.00     0.45574    
-130.00 -15.00     0.43744    
-130.00 -14.00     0.34775    
-130.00 -13.00     0.22400    
-130.00 -12.00     0.10534    
-130.00 -11.00     0.21704E-01
-130.00 -10.00    -0.13637E-01
-130.00  -9.00    -0.57328E-02
-130.00  -8.00     0.26064E-01
-130.00  -7.00     0.56199E-01
-130.00  -6.00     0.62221E-01
-130.00  -5.00     0.32266E-01
-130.00  -4.00    -0.31552E-01
-130.00  -3.00    -0.11459    
-130.00  -2.00    -0.19516    
-130.00  -1.00    -0.25188    
-130.00   0.00    -0.27046    
-130.00   1.00    -0.24766    
-130.00   2.00    -0.19137    
-130.00   3.00    -0.11728    
-130.00   4.00    -0.43511E-01
-130.00   5.00     0.14803E-01
-130.00   6.00     0.49041E-01
-130.00   7.00     0.57886E-01
-130.00   8.00     0.45507E-01
-130.00   9.00     0.18270E-01
-130.00  10.00    -0.18414E-01
-130.00  11.00    -0.61716E-01
-130.00  12.00    -0.11088    
-130.00  13.00    -0.16495    
-130.00  14.00    -0.21997    
-130.00  15.00    -0.26711    
-130.00  16.00    -0.29309    
-130.00  17.00    -0.28304    
-130.00  18.00    -0.22522    
-130.00  19.00    -0.11592    
-130.00  20.00     0.37378E-01
-130.00  21.00     0.21592    
-130.00  22.00     0.39331    
-130.00  23.00     0.54197    
-130.00  24.00     0.64042    
-130.00  25.00     0.67932    
-130.00  26.00     0.66397    
-130.00  27.00     0.61247    
-130.00  28.00     0.55007    
-130.00  29.00     0.50132    
-130.00  30.00     0.48277    
-130.00  31.00     0.49833    
-130.00  32.00     0.53907    
-130.00  33.00     0.58719    
-130.00  34.00     0.62281    
-130.00  35.00     0.63123    
-130.00  36.00     0.60804    
-130.00  37.00     0.56037    
-130.00  38.00     0.50384    
