 -14.00 -26.00     0.45709E-01
 -14.00 -25.00     0.74433E-02
 -14.00 -24.00    -0.23942E-01
 -14.00 -23.00    -0.53581E-01
 -14.00 -22.00    -0.89253E-01
 -14.00 -21.00    -0.13828    
 -14.00 -20.00    -0.20411    
 -14.00 -19.00    -0.28373    
 -14.00 -18.00    -0.36704    
 -14.00 -17.00    -0.43854    
 -14.00 -16.00    -0.48114    
 -14.00 -15.00    -0.48106    
 -14.00 -14.00    -0.43235    
 -14.00 -13.00    -0.33970    
 -14.00 -12.00    -0.21839    
 -14.00 -11.00    -0.91239E-01
 -14.00 -10.00     0.16739E-01
 -14.00  -9.00     0.84673E-01
 -14.00  -8.00     0.10132    
 -14.00  -7.00     0.68178E-01
 -14.00  -6.00    -0.67973E-03
 -14.00  -5.00    -0.82186E-01
 -14.00  -4.00    -0.15026    
 -14.00  -3.00    -0.18269    
 -14.00  -2.00    -0.16706    
 -14.00  -1.00    -0.10418    
 -14.00   0.00    -0.82157E-02
 -14.00   1.00     0.96611E-01
 -14.00   2.00     0.18166    
 -14.00   3.00     0.22052    
 -14.00   4.00     0.19498    
 -14.00   5.00     0.98901E-01
 -14.00   6.00    -0.60663E-01
 -14.00   7.00    -0.26531    
 -14.00   8.00    -0.48927    
 -14.00   9.00    -0.70452    
 -14.00  10.00    -0.88576    
 -14.00  11.00     -1.0142    
 -14.00  12.00     -1.0798    
 -14.00  13.00     -1.0808    
 -14.00  14.00     -1.0232    
 -14.00  15.00    -0.91777    
 -14.00  16.00    -0.77783    
 -14.00  17.00    -0.61733    
 -14.00  18.00    -0.44947    
 -14.00  19.00    -0.28623    
 -14.00  20.00    -0.13851    
 -14.00  21.00    -0.16335E-01
 -14.00  22.00     0.71078E-01
 -14.00  23.00     0.11574    
 -14.00  24.00     0.11185    
 -14.00  25.00     0.57149E-01
 -14.00  26.00    -0.45721E-01
 -14.00  27.00    -0.18832    
 -14.00  28.00    -0.35635    
 -14.00  29.00    -0.53075    
 -14.00  30.00    -0.68993    
 -14.00  31.00    -0.81298    
 -14.00  32.00    -0.88309    
 -14.00  33.00    -0.89074    
 -14.00  34.00    -0.83573    
 -14.00  35.00    -0.72769    
 -14.00  36.00    -0.58465    
 -14.00  37.00    -0.43003    
 -14.00  38.00    -0.28859    
 -14.00  39.00    -0.18213    
 -14.00  40.00    -0.12585    
 -14.00  41.00    -0.12615    
 -14.00  42.00    -0.18023    
 -14.00  43.00    -0.27744    
 -14.00  44.00    -0.40179    
 -14.00  45.00    -0.53515    
 -14.00  46.00    -0.65998    
 -14.00  47.00    -0.76149    
 -14.00  48.00    -0.82874    
 -14.00  49.00    -0.85453    
 -14.00  50.00    -0.83544    
 -14.00  51.00    -0.77130    
 -14.00  52.00    -0.66542    
 -14.00  53.00    -0.52458    
 -14.00  54.00    -0.36024    
 -14.00  55.00    -0.18754    
 -14.00  56.00    -0.24794E-01
 -14.00  57.00     0.10899    
 -14.00  58.00     0.19769    
 -14.00  59.00     0.23149    
 -14.00  60.00     0.21028    
 -14.00  61.00     0.14411    
 -14.00  62.00     0.52548E-01
 -14.00  63.00    -0.40056E-01
 -14.00  64.00    -0.10941    
 -14.00  65.00    -0.13789    
 -14.00  66.00    -0.11910    
 -14.00  67.00    -0.60449E-01
 -14.00  68.00     0.19448E-01
 -14.00  69.00     0.94337E-01
 -14.00  70.00     0.13869    
 -14.00  71.00     0.13323    
 -14.00  72.00     0.72251E-01
 -14.00  73.00    -0.35616E-01
 -14.00  74.00    -0.16882    
 -14.00  75.00    -0.29941    
 -14.00  76.00    -0.39852    
 -14.00  77.00    -0.44567    
 -14.00  78.00    -0.43200    
 -14.00  79.00    -0.36365    
 -14.00  80.00    -0.25672    
 -14.00  81.00    -0.13407    
 -14.00  82.00    -0.18105E-01
 -14.00  83.00     0.75329E-01
 -14.00  84.00     0.14069    
 -14.00  85.00     0.17860    
 -14.00  86.00     0.19924    
 -14.00  87.00     0.21217    
 -14.00  88.00     0.22534    
 -14.00  89.00     0.23648    
 -13.00 -89.00    -0.12061    
 -13.00 -88.00    -0.12767    
 -13.00 -87.00    -0.88534E-01
 -13.00 -86.00    -0.74504E-02
 -13.00 -85.00     0.10838    
 -13.00 -84.00     0.24258    
 -13.00 -83.00     0.37600    
 -13.00 -82.00     0.48888    
 -13.00 -81.00     0.56537    
 -13.00 -80.00     0.59470    
 -13.00 -79.00     0.57602    
 -13.00 -78.00     0.51605    
 -13.00 -77.00     0.42887    
 -13.00 -76.00     0.33197    
 -13.00 -75.00     0.24276    
 -13.00 -74.00     0.17495    
 -13.00 -73.00     0.13613    
 -13.00 -72.00     0.12664    
 -13.00 -71.00     0.14014    
 -13.00 -70.00     0.16700    
 -13.00 -69.00     0.19485    
 -13.00 -68.00     0.21278    
 -13.00 -67.00     0.21296    
 -13.00 -66.00     0.19222    
 -13.00 -65.00     0.15132    
 -13.00 -64.00     0.96776E-01
 -13.00 -63.00     0.37138E-01
 -13.00 -62.00    -0.17472E-01
 -13.00 -61.00    -0.55676E-01
 -13.00 -60.00    -0.69108E-01
 -13.00 -59.00    -0.52417E-01
 -13.00 -58.00    -0.50270E-02
 -13.00 -57.00     0.67997E-01
 -13.00 -56.00     0.15655    
 -13.00 -55.00     0.24687    
 -13.00 -54.00     0.32425    
 -13.00 -53.00     0.37560    
 -13.00 -52.00     0.39316    
 -13.00 -51.00     0.37587    
 -13.00 -50.00     0.32987    
 -13.00 -49.00     0.26757    
 -13.00 -48.00     0.20425    
 -13.00 -47.00     0.15438    
 -13.00 -46.00     0.12787    
 -13.00 -45.00     0.12786    
 -13.00 -44.00     0.15011    
 -13.00 -43.00     0.18462    
 -13.00 -42.00     0.21911    
 -13.00 -41.00     0.24267    
 -13.00 -40.00     0.24932    
 -13.00 -39.00     0.23935    
 -13.00 -38.00     0.21888    
 -13.00 -37.00     0.19737    
 -13.00 -36.00     0.18398    
 -13.00 -35.00     0.18415    
 -13.00 -34.00     0.19751    
 -13.00 -33.00     0.21782    
 -13.00 -32.00     0.23510    
 -13.00 -31.00     0.23906    
 -13.00 -30.00     0.22276    
 -13.00 -29.00     0.18517    
 -13.00 -28.00     0.13163    
 -13.00 -27.00     0.72047E-01
 -13.00 -26.00     0.17365E-01
 -13.00 -25.00    -0.24445E-01
 -13.00 -24.00    -0.51462E-01
 -13.00 -23.00    -0.68781E-01
 -13.00 -22.00    -0.86883E-01
 -13.00 -21.00    -0.11782    
 -13.00 -20.00    -0.17043    
 -13.00 -19.00    -0.24617    
 -13.00 -18.00    -0.33710    
 -13.00 -17.00    -0.42694    
 -13.00 -16.00    -0.49499    
 -13.00 -15.00    -0.52200    
 -13.00 -14.00    -0.49622    
 -13.00 -13.00    -0.41767    
 -13.00 -12.00    -0.29928    
 -13.00 -11.00    -0.16430    
 -13.00 -10.00    -0.40644E-01
 -13.00  -9.00     0.46382E-01
 -13.00  -8.00     0.80895E-01
 -13.00  -7.00     0.60788E-01
 -13.00  -6.00    -0.16288E-02
 -13.00  -5.00    -0.82906E-01
 -13.00  -4.00    -0.15482    
 -13.00  -3.00    -0.19200    
 -13.00  -2.00    -0.17884    
 -13.00  -1.00    -0.11377    
 -13.00   0.00    -0.98138E-02
 -13.00   1.00     0.10852    
 -13.00   2.00     0.21120    
 -13.00   3.00     0.26972    
 -13.00   4.00     0.26364    
 -13.00   5.00     0.18479    
 -13.00   6.00     0.38577E-01
 -13.00   7.00    -0.15780    
 -13.00   8.00    -0.37940    
 -13.00   9.00    -0.59871    
 -13.00  10.00    -0.79058    
 -13.00  11.00    -0.93590    
 -13.00  12.00     -1.0235    
 -13.00  13.00     -1.0502    
 -13.00  14.00     -1.0194    
 -13.00  15.00    -0.93948    
 -13.00  16.00    -0.82115    
 -13.00  17.00    -0.67651    
 -13.00  18.00    -0.51793    
 -13.00  19.00    -0.35783    
 -13.00  20.00    -0.20864    
 -13.00  21.00    -0.82614E-01
 -13.00  22.00     0.86808E-02
 -13.00  23.00     0.55461E-01
 -13.00  24.00     0.51154E-01
 -13.00  25.00    -0.60727E-02
 -13.00  26.00    -0.11214    
 -13.00  27.00    -0.25660    
 -13.00  28.00    -0.42324    
 -13.00  29.00    -0.59177    
 -13.00  30.00    -0.74053    
 -13.00  31.00    -0.84971    
 -13.00  32.00    -0.90464    
 -13.00  33.00    -0.89838    
 -13.00  34.00    -0.83313    
 -13.00  35.00    -0.72008    
 -13.00  36.00    -0.57758    
 -13.00  37.00    -0.42799    
 -13.00  38.00    -0.29378    
 -13.00  39.00    -0.19371    
 -13.00  40.00    -0.13988    
 -13.00  41.00    -0.13612    
 -13.00  42.00    -0.17827    
 -13.00  43.00    -0.25575    
 -13.00  44.00    -0.35424    
 -13.00  45.00    -0.45864    
 -13.00  46.00    -0.55521    
 -13.00  47.00    -0.63326    
 -13.00  48.00    -0.68527    
 -13.00  49.00    -0.70635    
 -13.00  50.00    -0.69370    
 -13.00  51.00    -0.64599    
 -13.00  52.00    -0.56371    
 -13.00  53.00    -0.44982    
 -13.00  54.00    -0.31147    
 -13.00  55.00    -0.15999    
 -13.00  56.00    -0.11101E-01
 -13.00  57.00     0.11716    
 -13.00  58.00     0.20777    
 -13.00  59.00     0.24859    
 -13.00  60.00     0.23625    
 -13.00  61.00     0.17751    
 -13.00  62.00     0.89345E-01
 -13.00  63.00    -0.51966E-02
 -13.00  64.00    -0.81522E-01
 -13.00  65.00    -0.12045    
 -13.00  66.00    -0.11306    
 -13.00  67.00    -0.64081E-01
 -13.00  68.00     0.99571E-02
 -13.00  69.00     0.83968E-01
 -13.00  70.00     0.13223    
 -13.00  71.00     0.13424    
 -13.00  72.00     0.82491E-01
 -13.00  73.00    -0.16520E-01
 -13.00  74.00    -0.14286    
 -13.00  75.00    -0.26946    
 -13.00  76.00    -0.36747    
 -13.00  77.00    -0.41578    
 -13.00  78.00    -0.40454    
 -13.00  79.00    -0.33888    
 -13.00  80.00    -0.23415    
 -13.00  81.00    -0.11301    
 -13.00  82.00     0.19621E-02
 -13.00  83.00     0.94332E-01
 -13.00  84.00     0.15815    
 -13.00  85.00     0.19404    
 -13.00  86.00     0.21166    
 -13.00  87.00     0.22124    
 -13.00  88.00     0.23078    
 -13.00  89.00     0.23879    
 -12.00 -89.00    -0.11986    
 -12.00 -88.00    -0.12684    
 -12.00 -87.00    -0.88485E-01
 -12.00 -86.00    -0.86539E-02
 -12.00 -85.00     0.10507    
 -12.00 -84.00     0.23698    
 -12.00 -83.00     0.36788    
 -12.00 -82.00     0.47934    
 -12.00 -81.00     0.55539    
 -12.00 -80.00     0.58580    
 -12.00 -79.00     0.56997    
 -12.00 -78.00     0.51442    
 -12.00 -77.00     0.43223    
 -12.00 -76.00     0.34001    
 -12.00 -75.00     0.25396    
 -12.00 -74.00     0.18668    
 -12.00 -73.00     0.14531    
 -12.00 -72.00     0.13055    
 -12.00 -71.00     0.13714    
 -12.00 -70.00     0.15706    
 -12.00 -69.00     0.17955    
 -12.00 -68.00     0.19486    
 -12.00 -67.00     0.19547    
 -12.00 -66.00     0.17754    
 -12.00 -65.00     0.14059    
 -12.00 -64.00     0.89444E-01
 -12.00 -63.00     0.31253E-01
 -12.00 -62.00    -0.24231E-01
 -12.00 -61.00    -0.65048E-01
 -12.00 -60.00    -0.81249E-01
 -12.00 -59.00    -0.65559E-01
 -12.00 -58.00    -0.15907E-01
 -12.00 -57.00     0.63051E-01
 -12.00 -56.00     0.16003    
 -12.00 -55.00     0.25876    
 -12.00 -54.00     0.34104    
 -12.00 -53.00     0.39052    
 -12.00 -52.00     0.39733    
 -12.00 -51.00     0.36038    
 -12.00 -50.00     0.28817    
 -12.00 -49.00     0.19737    
 -12.00 -48.00     0.10838    
 -12.00 -47.00     0.40432E-01
 -12.00 -46.00     0.63807E-02
 -12.00 -45.00     0.97197E-02
 -12.00 -44.00     0.43815E-01
 -12.00 -43.00     0.94232E-01
 -12.00 -42.00     0.14349    
 -12.00 -41.00     0.17626    
 -12.00 -40.00     0.18420    
 -12.00 -39.00     0.16794    
 -12.00 -38.00     0.13655    
 -12.00 -37.00     0.10398    
 -12.00 -36.00     0.84102E-01
 -12.00 -35.00     0.85736E-01
 -12.00 -34.00     0.10949    
 -12.00 -33.00     0.14744    
 -12.00 -32.00     0.18571    
 -12.00 -31.00     0.20917    
 -12.00 -30.00     0.20659    
 -12.00 -29.00     0.17447    
 -12.00 -28.00     0.11828    
 -12.00 -27.00     0.50537E-01
 -12.00 -26.00    -0.13533E-01
 -12.00 -25.00    -0.61399E-01
 -12.00 -24.00    -0.87713E-01
 -12.00 -23.00    -0.96340E-01
 -12.00 -22.00    -0.99111E-01
 -12.00 -21.00    -0.11160    
 -12.00 -20.00    -0.14730    
 -12.00 -19.00    -0.21211    
 -12.00 -18.00    -0.30110    
 -12.00 -17.00    -0.39874    
 -12.00 -16.00    -0.48283    
 -12.00 -15.00    -0.53083    
 -12.00 -14.00    -0.52698    
 -12.00 -13.00    -0.46764    
 -12.00 -12.00    -0.36336    
 -12.00 -11.00    -0.23671    
 -12.00 -10.00    -0.11643    
 -12.00  -9.00    -0.29664E-01
 -12.00  -8.00     0.56786E-02
 -12.00  -7.00    -0.14014E-01
 -12.00  -6.00    -0.76966E-01
 -12.00  -5.00    -0.15927    
 -12.00  -4.00    -0.23154    
 -12.00  -3.00    -0.26706    
 -12.00  -2.00    -0.24922    
 -12.00  -1.00    -0.17604    
 -12.00   0.00    -0.60858E-01
 -12.00   1.00     0.71057E-01
 -12.00   2.00     0.18877    
 -12.00   3.00     0.26310    
 -12.00   4.00     0.27324    
 -12.00   5.00     0.21095    
 -12.00   6.00     0.81577E-01
 -12.00   7.00    -0.98106E-01
 -12.00   8.00    -0.30418    
 -12.00   9.00    -0.51081    
 -12.00  10.00    -0.69491    
 -12.00  11.00    -0.83939    
 -12.00  12.00    -0.93445    
 -12.00  13.00    -0.97719    
 -12.00  14.00    -0.97002    
 -12.00  15.00    -0.91880    
 -12.00  16.00    -0.83126    
 -12.00  17.00    -0.71608    
 -12.00  18.00    -0.58276    
 -12.00  19.00    -0.44179    
 -12.00  20.00    -0.30482    
 -12.00  21.00    -0.18443    
 -12.00  22.00    -0.93140E-01
 -12.00  23.00    -0.41904E-01
 -12.00  24.00    -0.38223E-01
 -12.00  25.00    -0.84409E-01
 -12.00  26.00    -0.17643    
 -12.00  27.00    -0.30376    
 -12.00  28.00    -0.45034    
 -12.00  29.00    -0.59665    
 -12.00  30.00    -0.72261    
 -12.00  31.00    -0.81066    
 -12.00  32.00    -0.84873    
 -12.00  33.00    -0.83227    
 -12.00  34.00    -0.76505    
 -12.00  35.00    -0.65855    
 -12.00  36.00    -0.52988    
 -12.00  37.00    -0.39873    
 -12.00  38.00    -0.28390    
 -12.00  39.00    -0.20012    
 -12.00  40.00    -0.15576    
 -12.00  41.00    -0.15205    
 -12.00  42.00    -0.18377    
 -12.00  43.00    -0.24102    
 -12.00  44.00    -0.31195    
 -12.00  45.00    -0.38525    
 -12.00  46.00    -0.45163    
 -12.00  47.00    -0.50498    
 -12.00  48.00    -0.54146    
 -12.00  49.00    -0.55854    
 -12.00  50.00    -0.55392    
 -12.00  51.00    -0.52487    
 -12.00  52.00    -0.46878    
 -12.00  53.00    -0.38447    
 -12.00  54.00    -0.27446    
 -12.00  55.00    -0.14606    
 -12.00  56.00    -0.12177E-01
 -12.00  57.00     0.11023    
 -12.00  58.00     0.20332    
 -12.00  59.00     0.25254    
 -12.00  60.00     0.25109    
 -12.00  61.00     0.20223    
 -12.00  62.00     0.12006    
 -12.00  63.00     0.26019E-01
 -12.00  64.00    -0.55254E-01
 -12.00  65.00    -0.10320    
 -12.00  66.00    -0.10649    
 -12.00  67.00    -0.67110E-01
 -12.00  68.00     0.60232E-03
 -12.00  69.00     0.72935E-01
 -12.00  70.00     0.12418    
 -12.00  71.00     0.13283    
 -12.00  72.00     0.89686E-01
 -12.00  73.00    -0.76837E-03
 -12.00  74.00    -0.12024    
 -12.00  75.00    -0.24256    
 -12.00  76.00    -0.33904    
 -12.00  77.00    -0.38797    
 -12.00  78.00    -0.37865    
 -12.00  79.00    -0.31519    
 -12.00  80.00    -0.21228    
 -12.00  81.00    -0.92338E-01
 -12.00  82.00     0.21860E-01
 -12.00  83.00     0.11331    
 -12.00  84.00     0.17565    
 -12.00  85.00     0.20957    
 -12.00  86.00     0.22419    
 -12.00  87.00     0.23040    
 -12.00  88.00     0.23626    
 -12.00  89.00     0.24112    
 -11.00 -89.00    -0.11908    
 -11.00 -88.00    -0.12592    
 -11.00 -87.00    -0.88309E-01
 -11.00 -86.00    -0.96795E-02
 -11.00 -85.00     0.10191    
 -11.00 -84.00     0.23143    
 -11.00 -83.00     0.35959    
 -11.00 -82.00     0.46929    
 -11.00 -81.00     0.54444    
 -11.00 -80.00     0.57542    
 -11.00 -79.00     0.56196    
 -11.00 -78.00     0.51045    
 -11.00 -77.00     0.43306    
 -11.00 -76.00     0.34556    
 -11.00 -75.00     0.26296    
 -11.00 -74.00     0.19666    
 -11.00 -73.00     0.15325    
 -11.00 -72.00     0.13364    
 -11.00 -71.00     0.13366    
 -11.00 -70.00     0.14671    
 -11.00 -69.00     0.16374    
 -11.00 -68.00     0.17626    
 -11.00 -67.00     0.17721    
 -11.00 -66.00     0.16224    
 -11.00 -65.00     0.12988    
 -11.00 -64.00     0.82997E-01
 -11.00 -63.00     0.27457E-01
 -11.00 -62.00    -0.27616E-01
 -11.00 -61.00    -0.70026E-01
 -11.00 -60.00    -0.88514E-01
 -11.00 -59.00    -0.74096E-01
 -11.00 -58.00    -0.23271E-01
 -11.00 -57.00     0.59843E-01
 -11.00 -56.00     0.16310    
 -11.00 -55.00     0.26809    
 -11.00 -54.00     0.35356    
 -11.00 -53.00     0.40017    
 -11.00 -52.00     0.39605    
 -11.00 -51.00     0.33994    
 -11.00 -50.00     0.24239    
 -11.00 -49.00     0.12384    
 -11.00 -48.00     0.93434E-02
 -11.00 -47.00    -0.77489E-01
 -11.00 -46.00    -0.12101    
 -11.00 -45.00    -0.11734    
 -11.00 -44.00    -0.75225E-01
 -11.00 -43.00    -0.13121E-01
 -11.00 -42.00     0.46750E-01
 -11.00 -41.00     0.85011E-01
 -11.00 -40.00     0.91231E-01
 -11.00 -39.00     0.66474E-01
 -11.00 -38.00     0.22719E-01
 -11.00 -37.00    -0.21597E-01
 -11.00 -36.00    -0.47972E-01
 -11.00 -35.00    -0.44207E-01
 -11.00 -34.00    -0.86453E-02
 -11.00 -33.00     0.49117E-01
 -11.00 -32.00     0.11130    
 -11.00 -31.00     0.15771    
 -11.00 -30.00     0.17241    
 -11.00 -29.00     0.14886    
 -11.00 -28.00     0.92001E-01
 -11.00 -27.00     0.16476E-01
 -11.00 -26.00    -0.58448E-01
 -11.00 -25.00    -0.11544    
 -11.00 -24.00    -0.14500    
 -11.00 -23.00    -0.14865    
 -11.00 -22.00    -0.13824    
 -11.00 -21.00    -0.13170    
 -11.00 -20.00    -0.14644    
 -11.00 -19.00    -0.19281    
 -11.00 -18.00    -0.26972    
 -11.00 -17.00    -0.36406    
 -11.00 -16.00    -0.45421    
 -11.00 -15.00    -0.51660    
 -11.00 -14.00    -0.53326    
 -11.00 -13.00    -0.49792    
 -11.00 -12.00    -0.41867    
 -11.00 -11.00    -0.31615    
 -11.00 -10.00    -0.21782    
 -11.00  -9.00    -0.14996    
 -11.00  -8.00    -0.12986    
 -11.00  -7.00    -0.16052    
 -11.00  -6.00    -0.22957    
 -11.00  -5.00    -0.31264    
 -11.00  -4.00    -0.38030    
 -11.00  -3.00    -0.40641    
 -11.00  -2.00    -0.37557    
 -11.00  -1.00    -0.28749    
 -11.00   0.00    -0.15721    
 -11.00   1.00    -0.11252E-01
 -11.00   2.00     0.11910    
 -11.00   3.00     0.20533    
 -11.00   4.00     0.22815    
 -11.00   5.00     0.18114    
 -11.00   6.00     0.71072E-01
 -11.00   7.00    -0.84974E-01
 -11.00   8.00    -0.26430    
 -11.00   9.00    -0.44381    
 -11.00  10.00    -0.60431    
 -11.00  11.00    -0.73286    
 -11.00  12.00    -0.82317    
 -11.00  13.00    -0.87428    
 -11.00  14.00    -0.88853    
 -11.00  15.00    -0.86960    
 -11.00  16.00    -0.82133    
 -11.00  17.00    -0.74764    
 -11.00  18.00    -0.65321    
 -11.00  19.00    -0.54449    
 -11.00  20.00    -0.43038    
 -11.00  21.00    -0.32210    
 -11.00  22.00    -0.23209    
 -11.00  23.00    -0.17209    
 -11.00  24.00    -0.15087    
 -11.00  25.00    -0.17223    
 -11.00  26.00    -0.23367    
 -11.00  27.00    -0.32640    
 -11.00  28.00    -0.43641    
 -11.00  29.00    -0.54669    
 -11.00  30.00    -0.64006    
 -11.00  31.00    -0.70208    
 -11.00  32.00    -0.72350    
 -11.00  33.00    -0.70178    
 -11.00  34.00    -0.64140    
 -11.00  35.00    -0.55287    
 -11.00  36.00    -0.45067    
 -11.00  37.00    -0.35050    
 -11.00  38.00    -0.26636    
 -11.00  39.00    -0.20815    
 -11.00  40.00    -0.18019    
 -11.00  41.00    -0.18105    
 -11.00  42.00    -0.20471    
 -11.00  43.00    -0.24250    
 -11.00  44.00    -0.28555    
 -11.00  45.00    -0.32681    
 -11.00  46.00    -0.36195    
 -11.00  47.00    -0.38963    
 -11.00  48.00    -0.40990    
 -11.00  49.00    -0.42265    
 -11.00  50.00    -0.42606    
 -11.00  51.00    -0.41598    
 -11.00  52.00    -0.38664    
 -11.00  53.00    -0.33264    
 -11.00  54.00    -0.25176    
 -11.00  55.00    -0.14714    
 -11.00  56.00    -0.28734E-01
 -11.00  57.00     0.87762E-01
 -11.00  58.00     0.18379    
 -11.00  59.00     0.24250    
 -11.00  60.00     0.25363    
 -11.00  61.00     0.21683    
 -11.00  62.00     0.14310    
 -11.00  63.00     0.52057E-01
 -11.00  64.00    -0.31933E-01
 -11.00  65.00    -0.87162E-01
 -11.00  66.00    -0.10006    
 -11.00  67.00    -0.69849E-01
 -11.00  68.00    -0.86582E-02
 -11.00  69.00     0.61357E-01
 -11.00  70.00     0.11470    
 -11.00  71.00     0.12915    
 -11.00  72.00     0.93890E-01
 -11.00  73.00     0.11578E-01
 -11.00  74.00    -0.10113    
 -11.00  75.00    -0.21896    
 -11.00  76.00    -0.31350    
 -11.00  77.00    -0.36253    
 -11.00  78.00    -0.35458    
 -11.00  79.00    -0.29279    
 -11.00  80.00    -0.19126    
 -11.00  81.00    -0.72173E-01
 -11.00  82.00     0.41508E-01
 -11.00  83.00     0.13220    
 -11.00  84.00     0.19317    
 -11.00  85.00     0.22518    
 -11.00  86.00     0.23681    
 -11.00  87.00     0.23964    
 -11.00  88.00     0.24178    
 -11.00  89.00     0.24347    
 -10.00 -89.00    -0.11827    
 -10.00 -88.00    -0.12494    
 -10.00 -87.00    -0.88002E-01
 -10.00 -86.00    -0.10524E-01
 -10.00 -85.00     0.98933E-01
 -10.00 -84.00     0.22595    
 -10.00 -83.00     0.35118    
 -10.00 -82.00     0.45879    
 -10.00 -81.00     0.53256    
 -10.00 -80.00     0.56361    
 -10.00 -79.00     0.55203    
 -10.00 -78.00     0.50415    
 -10.00 -77.00     0.43137    
 -10.00 -76.00     0.34865    
 -10.00 -75.00     0.26977    
 -10.00 -74.00     0.20491    
 -10.00 -73.00     0.15996    
 -10.00 -72.00     0.13591    
 -10.00 -71.00     0.12961    
 -10.00 -70.00     0.13578    
 -10.00 -69.00     0.14712    
 -10.00 -68.00     0.15652    
 -10.00 -67.00     0.15758    
 -10.00 -66.00     0.14562    
 -10.00 -65.00     0.11832    
 -10.00 -64.00     0.76511E-01
 -10.00 -63.00     0.24786E-01
 -10.00 -62.00    -0.28634E-01
 -10.00 -61.00    -0.71687E-01
 -10.00 -60.00    -0.92100E-01
 -10.00 -59.00    -0.79392E-01
 -10.00 -58.00    -0.28641E-01
 -10.00 -57.00     0.56782E-01
 -10.00 -56.00     0.16429    
 -10.00 -55.00     0.27387    
 -10.00 -54.00     0.36163    
 -10.00 -53.00     0.40566    
 -10.00 -52.00     0.39210    
 -10.00 -51.00     0.31926    
 -10.00 -50.00     0.19923    
 -10.00 -49.00     0.55531E-01
 -10.00 -48.00    -0.82800E-01
 -10.00 -47.00    -0.18830    
 -10.00 -46.00    -0.24274    
 -10.00 -45.00    -0.24175    
 -10.00 -44.00    -0.19577    
 -10.00 -43.00    -0.12665    
 -10.00 -42.00    -0.60725E-01
 -10.00 -41.00    -0.20867E-01
 -10.00 -40.00    -0.19354E-01
 -10.00 -39.00    -0.54609E-01
 -10.00 -38.00    -0.11192    
 -10.00 -37.00    -0.16866    
 -10.00 -36.00    -0.20197    
 -10.00 -35.00    -0.19643    
 -10.00 -34.00    -0.14935    
 -10.00 -33.00    -0.71877E-01
 -10.00 -32.00     0.14405E-01
 -10.00 -31.00     0.84316E-01
 -10.00 -30.00     0.11705    
 -10.00 -29.00     0.10272    
 -10.00 -28.00     0.45316E-01
 -10.00 -27.00    -0.38868E-01
 -10.00 -26.00    -0.12674    
 -10.00 -25.00    -0.19608    
 -10.00 -24.00    -0.23270    
 -10.00 -23.00    -0.23485    
 -10.00 -22.00    -0.21331    
 -10.00 -21.00    -0.18729    
 -10.00 -20.00    -0.17747    
 -10.00 -19.00    -0.19861    
 -10.00 -18.00    -0.25418    
 -10.00 -17.00    -0.33491    
 -10.00 -16.00    -0.42169    
 -10.00 -15.00    -0.49186    
 -10.00 -14.00    -0.52690    
 -10.00 -13.00    -0.51878    
 -10.00 -12.00    -0.47299    
 -10.00 -11.00    -0.40712    
 -10.00 -10.00    -0.34534    
 -10.00  -9.00    -0.31075    
 -10.00  -8.00    -0.31766    
 -10.00  -7.00    -0.36671    
 -10.00  -6.00    -0.44406    
 -10.00  -5.00    -0.52509    
 -10.00  -4.00    -0.58151    
 -10.00  -3.00    -0.58958    
 -10.00  -2.00    -0.53720    
 -10.00  -1.00    -0.42759    
 -10.00   0.00    -0.27870    
 -10.00   1.00    -0.11863    
 -10.00   2.00     0.21521E-01
 -10.00   3.00     0.11518    
 -10.00   4.00     0.14622    
 -10.00   5.00     0.11169    
 -10.00   6.00     0.21016E-01
 -10.00   7.00    -0.10778    
 -10.00   8.00    -0.25339    
 -10.00   9.00    -0.39636    
 -10.00  10.00    -0.52274    
 -10.00  11.00    -0.62540    
 -10.00  12.00    -0.70307    
 -10.00  13.00    -0.75795    
 -10.00  14.00    -0.79289    
 -10.00  15.00    -0.80937    
 -10.00  16.00    -0.80672    
 -10.00  17.00    -0.78295    
 -10.00  18.00    -0.73649    
 -10.00  19.00    -0.66826    
 -10.00  20.00    -0.58300    
 -10.00  21.00    -0.48954    
 -10.00  22.00    -0.39962    
 -10.00  23.00    -0.32571    
 -10.00  24.00    -0.27827    
 -10.00  25.00    -0.26343    
 -10.00  26.00    -0.28148    
 -10.00  27.00    -0.32673    
 -10.00  28.00    -0.38859    
 -10.00  29.00    -0.45375    
 -10.00  30.00    -0.50883    
 -10.00  31.00    -0.54293    
 -10.00  32.00    -0.54959    
 -10.00  33.00    -0.52785    
 -10.00  34.00    -0.48209    
 -10.00  35.00    -0.42091    
 -10.00  36.00    -0.35513    
 -10.00  37.00    -0.29557    
 -10.00  38.00    -0.25073    
 -10.00  39.00    -0.22525    
 -10.00  40.00    -0.21925    
 -10.00  41.00    -0.22872    
 -10.00  42.00    -0.24709    
 -10.00  43.00    -0.26712    
 -10.00  44.00    -0.28321    
 -10.00  45.00    -0.29274    
 -10.00  46.00    -0.29646    
 -10.00  47.00    -0.29785    
 -10.00  48.00    -0.30090    
 -10.00  49.00    -0.30799    
 -10.00  50.00    -0.31792    
 -10.00  51.00    -0.32527    
 -10.00  52.00    -0.32127    
 -10.00  53.00    -0.29650    
 -10.00  54.00    -0.24403    
 -10.00  55.00    -0.16286    
 -10.00  56.00    -0.59849E-01
 -10.00  57.00     0.50761E-01
 -10.00  58.00     0.14995    
 -10.00  59.00     0.21878    
 -10.00  60.00     0.24367    
 -10.00  61.00     0.22066    
 -10.00  62.00     0.15753    
 -10.00  63.00     0.71864E-01
 -10.00  64.00    -0.12547E-01
 -10.00  65.00    -0.73110E-01
 -10.00  66.00    -0.94233E-01
 -10.00  67.00    -0.72504E-01
 -10.00  68.00    -0.17786E-01
 -10.00  69.00     0.49424E-01
 -10.00  70.00     0.10406    
 -10.00  71.00     0.12342    
 -10.00  72.00     0.95245E-01
 -10.00  73.00     0.20549E-01
 -10.00  74.00    -0.85595E-01
 -10.00  75.00    -0.19882    
 -10.00  76.00    -0.29108    
 -10.00  77.00    -0.33968    
 -10.00  78.00    -0.33254    
 -10.00  79.00    -0.27186    
 -10.00  80.00    -0.17122    
 -10.00  81.00    -0.52620E-01
 -10.00  82.00     0.60833E-01
 -10.00  83.00     0.15097    
 -10.00  84.00     0.21068    
 -10.00  85.00     0.24084    
 -10.00  86.00     0.24950    
 -10.00  87.00     0.24894    
 -10.00  88.00     0.24733    
 -10.00  89.00     0.24582    
  -9.00 -89.00    -0.11744    
  -9.00 -88.00    -0.12387    
  -9.00 -87.00    -0.87558E-01
  -9.00 -86.00    -0.11186E-01
  -9.00 -85.00     0.96134E-01
  -9.00 -84.00     0.22057    
  -9.00 -83.00     0.34271    
  -9.00 -82.00     0.44786    
  -9.00 -81.00     0.51980    
  -9.00 -80.00     0.55043    
  -9.00 -79.00     0.54021    
  -9.00 -78.00     0.49556    
  -9.00 -77.00     0.42720    
  -9.00 -76.00     0.34930    
  -9.00 -75.00     0.27442    
  -9.00 -74.00     0.21145    
  -9.00 -73.00     0.16546    
  -9.00 -72.00     0.13736    
  -9.00 -71.00     0.12494    
  -9.00 -70.00     0.12413    
  -9.00 -69.00     0.12942    
  -9.00 -68.00     0.13522    
  -9.00 -67.00     0.13600    
  -9.00 -66.00     0.12697    
  -9.00 -65.00     0.10507    
  -9.00 -64.00     0.69088E-01
  -9.00 -63.00     0.22286E-01
  -9.00 -62.00    -0.28296E-01
  -9.00 -61.00    -0.71122E-01
  -9.00 -60.00    -0.93219E-01
  -9.00 -59.00    -0.82815E-01
  -9.00 -58.00    -0.33541E-01
  -9.00 -57.00     0.52266E-01
  -9.00 -56.00     0.16211    
  -9.00 -55.00     0.27491    
  -9.00 -54.00     0.36480    
  -9.00 -53.00     0.40757    
  -9.00 -52.00     0.38742    
  -9.00 -51.00     0.30189    
  -9.00 -50.00     0.16395    
  -9.00 -49.00    -0.71989E-03
  -9.00 -48.00    -0.15987    
  -9.00 -47.00    -0.28283    
  -9.00 -46.00    -0.34900    
  -9.00 -45.00    -0.35334    
  -9.00 -44.00    -0.30746    
  -9.00 -43.00    -0.23581    
  -9.00 -42.00    -0.16808    
  -9.00 -41.00    -0.12998    
  -9.00 -40.00    -0.13541    
  -9.00 -39.00    -0.18231    
  -9.00 -38.00    -0.25362    
  -9.00 -37.00    -0.32308    
  -9.00 -36.00    -0.36393    
  -9.00 -35.00    -0.35785    
  -9.00 -34.00    -0.30118    
  -9.00 -33.00    -0.20644    
  -9.00 -32.00    -0.98623E-01
  -9.00 -31.00    -0.75741E-02
  -9.00 -30.00     0.41269E-01
  -9.00 -29.00     0.34644E-01
  -9.00 -28.00    -0.24656E-01
  -9.00 -27.00    -0.11902    
  -9.00 -26.00    -0.22186    
  -9.00 -25.00    -0.30616    
  -9.00 -24.00    -0.35283    
  -9.00 -23.00    -0.35629    
  -9.00 -22.00    -0.32543    
  -9.00 -21.00    -0.27994    
  -9.00 -20.00    -0.24316    
  -9.00 -19.00    -0.23411    
  -9.00 -18.00    -0.26131    
  -9.00 -17.00    -0.32032    
  -9.00 -16.00    -0.39596    
  -9.00 -15.00    -0.46797    
  -9.00 -14.00    -0.51850    
  -9.00 -13.00    -0.53837    
  -9.00 -12.00    -0.53037    
  -9.00 -11.00    -0.50809    
  -9.00 -10.00    -0.49097    
  -9.00  -9.00    -0.49706    
  -9.00  -8.00    -0.53610    
  -9.00  -7.00    -0.60523    
  -9.00  -6.00    -0.68875    
  -9.00  -5.00    -0.76223    
  -9.00  -4.00    -0.79966    
  -9.00  -3.00    -0.78129    
  -9.00  -2.00    -0.69999    
  -9.00  -1.00    -0.56383    
  -9.00   0.00    -0.39446    
  -9.00   1.00    -0.22164    
  -9.00   2.00    -0.75688E-01
  -9.00   3.00     0.19852E-01
  -9.00   4.00     0.53314E-01
  -9.00   5.00     0.26433E-01
  -9.00   6.00    -0.47804E-01
  -9.00   7.00    -0.15005    
  -9.00   8.00    -0.26047    
  -9.00   9.00    -0.36382    
  -9.00  10.00    -0.45223    
  -9.00  11.00    -0.52526    
  -9.00  12.00    -0.58747    
  -9.00  13.00    -0.64471    
  -9.00  14.00    -0.70058    
  -9.00  15.00    -0.75418    
  -9.00  16.00    -0.79993    
  -9.00  17.00    -0.82930    
  -9.00  18.00    -0.83381    
  -9.00  19.00    -0.80817    
  -9.00  20.00    -0.75247    
  -9.00  21.00    -0.67283    
  -9.00  22.00    -0.58019    
  -9.00  23.00    -0.48789    
  -9.00  24.00    -0.40847    
  -9.00  25.00    -0.35097    
  -9.00  26.00    -0.31913    
  -9.00  27.00    -0.31104    
  -9.00  28.00    -0.32019    
  -9.00  29.00    -0.33746    
  -9.00  30.00    -0.35351    
  -9.00  31.00    -0.36099    
  -9.00  32.00    -0.35604    
  -9.00  33.00    -0.33883    
  -9.00  34.00    -0.31311    
  -9.00  35.00    -0.28499    
  -9.00  36.00    -0.26122    
  -9.00  37.00    -0.24734    
  -9.00  38.00    -0.24624    
  -9.00  39.00    -0.25732    
  -9.00  40.00    -0.27658    
  -9.00  41.00    -0.29760    
  -9.00  42.00    -0.31333    
  -9.00  43.00    -0.31804    
  -9.00  44.00    -0.30926    
  -9.00  45.00    -0.28864    
  -9.00  46.00    -0.26176    
  -9.00  47.00    -0.23676    
  -9.00  48.00    -0.22145    
  -9.00  49.00    -0.22080    
  -9.00  50.00    -0.23445    
  -9.00  51.00    -0.25606    
  -9.00  52.00    -0.27429    
  -9.00  53.00    -0.27604    
  -9.00  54.00    -0.24998    
  -9.00  55.00    -0.19107    
  -9.00  56.00    -0.10299    
  -9.00  57.00     0.17074E-02
  -9.00  58.00     0.10389    
  -9.00  59.00     0.18288    
  -9.00  60.00     0.22203    
  -9.00  61.00     0.21393    
  -9.00  62.00     0.16311    
  -9.00  63.00     0.84933E-01
  -9.00  64.00     0.23277E-02
  -9.00  65.00    -0.61532E-01
  -9.00  66.00    -0.89309E-01
  -9.00  67.00    -0.75149E-01
  -9.00  68.00    -0.26652E-01
  -9.00  69.00     0.37400E-01
  -9.00  70.00     0.92573E-01
  -9.00  71.00     0.11593    
  -9.00  72.00     0.93972E-01
  -9.00  73.00     0.26257E-01
  -9.00  74.00    -0.73645E-01
  -9.00  75.00    -0.18225    
  -9.00  76.00    -0.27191    
  -9.00  77.00    -0.31961    
  -9.00  78.00    -0.31271    
  -9.00  79.00    -0.25255    
  -9.00  80.00    -0.15230    
  -9.00  81.00    -0.33769E-01
  -9.00  82.00     0.79764E-01
  -9.00  83.00     0.16957    
  -9.00  84.00     0.22816    
  -9.00  85.00     0.25652    
  -9.00  86.00     0.26226    
  -9.00  87.00     0.25829    
  -9.00  88.00     0.25292    
  -9.00  89.00     0.24818    
  -8.00 -89.00    -0.11657    
  -8.00 -88.00    -0.12273    
  -8.00 -87.00    -0.86973E-01
  -8.00 -86.00    -0.11662E-01
  -8.00 -85.00     0.93533E-01
  -8.00 -84.00     0.21530    
  -8.00 -83.00     0.33422    
  -8.00 -82.00     0.43658    
  -8.00 -81.00     0.50624    
  -8.00 -80.00     0.53593    
  -8.00 -79.00     0.52658    
  -8.00 -78.00     0.48473    
  -8.00 -77.00     0.42060    
  -8.00 -76.00     0.34758    
  -8.00 -75.00     0.27695    
  -8.00 -74.00     0.21631    
  -8.00 -73.00     0.16978    
  -8.00 -72.00     0.13801    
  -8.00 -71.00     0.11960    
  -8.00 -70.00     0.11163    
  -8.00 -69.00     0.11042    
  -8.00 -68.00     0.11202    
  -8.00 -67.00     0.11198    
  -8.00 -66.00     0.10569    
  -8.00 -65.00     0.89351E-01
  -8.00 -64.00     0.59936E-01
  -8.00 -63.00     0.19113E-01
  -8.00 -62.00    -0.27506E-01
  -8.00 -61.00    -0.69310E-01
  -8.00 -60.00    -0.92961E-01
  -8.00 -59.00    -0.85607E-01
  -8.00 -58.00    -0.39370E-01
  -8.00 -57.00     0.44778E-01
  -8.00 -56.00     0.15502    
  -8.00 -55.00     0.26988    
  -8.00 -54.00     0.36212    
  -8.00 -53.00     0.40565    
  -8.00 -52.00     0.38271    
  -8.00 -51.00     0.28967    
  -8.00 -50.00     0.13956    
  -8.00 -49.00    -0.40709E-01
  -8.00 -48.00    -0.21661    
  -8.00 -47.00    -0.35489    
  -8.00 -46.00    -0.43288    
  -8.00 -45.00    -0.44461    
  -8.00 -44.00    -0.40216    
  -8.00 -43.00    -0.33174    
  -8.00 -42.00    -0.26548    
  -8.00 -41.00    -0.23136    
  -8.00 -40.00    -0.24462    
  -8.00 -39.00    -0.30299    
  -8.00 -38.00    -0.38762    
  -8.00 -37.00    -0.46934    
  -8.00 -36.00    -0.51822    
  -8.00 -35.00    -0.51347    
  -8.00 -34.00    -0.45051    
  -8.00 -33.00    -0.34286    
  -8.00 -32.00    -0.21839    
  -8.00 -31.00    -0.11088    
  -8.00 -30.00    -0.49849E-01
  -8.00 -29.00    -0.51644E-01
  -8.00 -28.00    -0.11471    
  -8.00 -27.00    -0.22043    
  -8.00 -26.00    -0.33917    
  -8.00 -25.00    -0.43950    
  -8.00 -24.00    -0.49762    
  -8.00 -23.00    -0.50396    
  -8.00 -22.00    -0.46518    
  -8.00 -21.00    -0.40084    
  -8.00 -20.00    -0.33645    
  -8.00 -19.00    -0.29502    
  -8.00 -18.00    -0.29014    
  -8.00 -17.00    -0.32270    
  -8.00 -16.00    -0.38214    
  -8.00 -15.00    -0.45146    
  -8.00 -14.00    -0.51412    
  -8.00 -13.00    -0.56018    
  -8.00 -12.00    -0.58956    
  -8.00 -11.00    -0.61133    
  -8.00 -10.00    -0.63926    
  -8.00  -9.00    -0.68548    
  -8.00  -8.00    -0.75438    
  -8.00  -7.00    -0.83923    
  -8.00  -6.00    -0.92268    
  -8.00  -5.00    -0.98116    
  -8.00  -4.00    -0.99198    
  -8.00  -3.00    -0.94055    
  -8.00  -2.00    -0.82570    
  -8.00  -1.00    -0.66106    
  -8.00   0.00    -0.47219    
  -8.00   1.00    -0.29021    
  -8.00   2.00    -0.14401    
  -8.00   3.00    -0.53274E-01
  -8.00   4.00    -0.24334E-01
  -8.00   5.00    -0.50081E-01
  -8.00   6.00    -0.11354    
  -8.00   7.00    -0.19390    
  -8.00   8.00    -0.27289    
  -8.00   9.00    -0.33965    
  -8.00  10.00    -0.39260    
  -8.00  11.00    -0.43808    
  -8.00  12.00    -0.48645    
  -8.00  13.00    -0.54711    
  -8.00  14.00    -0.62415    
  -8.00  15.00    -0.71416    
  -8.00  16.00    -0.80652    
  -8.00  17.00    -0.88622    
  -8.00  18.00    -0.93807    
  -8.00  19.00    -0.95088    
  -8.00  20.00    -0.92050    
  -8.00  21.00    -0.85073    
  -8.00  22.00    -0.75212    
  -8.00  23.00    -0.63915    
  -8.00  24.00    -0.52665    
  -8.00  25.00    -0.42666    
  -8.00  26.00    -0.34632    
  -8.00  27.00    -0.28744    
  -8.00  28.00    -0.24735    
  -8.00  29.00    -0.22081    
  -8.00  30.00    -0.20221    
  -8.00  31.00    -0.18736    
  -8.00  32.00    -0.17461    
  -8.00  33.00    -0.16494    
  -8.00  34.00    -0.16131    
  -8.00  35.00    -0.16731    
  -8.00  36.00    -0.18572    
  -8.00  37.00    -0.21716    
  -8.00  38.00    -0.25931    
  -8.00  39.00    -0.30678    
  -8.00  40.00    -0.35184    
  -8.00  41.00    -0.38588    
  -8.00  42.00    -0.40134    
  -8.00  43.00    -0.39379    
  -8.00  44.00    -0.36339    
  -8.00  45.00    -0.31551    
  -8.00  46.00    -0.26004    
  -8.00  47.00    -0.20926    
  -8.00  48.00    -0.17464    
  -8.00  49.00    -0.16376    
  -8.00  50.00    -0.17742    
  -8.00  51.00    -0.20887    
  -8.00  52.00    -0.24485    
  -8.00  53.00    -0.26914    
  -8.00  54.00    -0.26649    
  -8.00  55.00    -0.22803    
  -8.00  56.00    -0.15421    
  -8.00  57.00    -0.55634E-01
  -8.00  58.00     0.48862E-01
  -8.00  59.00     0.13735    
  -8.00  60.00     0.19049    
  -8.00  61.00     0.19771    
  -8.00  62.00     0.16030    
  -8.00  63.00     0.91331E-01
  -8.00  64.00     0.12554E-01
  -8.00  65.00    -0.52597E-01
  -8.00  66.00    -0.85359E-01
  -8.00  67.00    -0.77712E-01
  -8.00  68.00    -0.35033E-01
  -8.00  69.00     0.25618E-01
  -8.00  70.00     0.80622E-01
  -8.00  71.00     0.10704    
  -8.00  72.00     0.90367E-01
  -8.00  73.00     0.28892E-01
  -8.00  74.00    -0.65193E-01
  -8.00  75.00    -0.16925    
  -8.00  76.00    -0.25608    
  -8.00  77.00    -0.30243    
  -8.00  78.00    -0.29521    
  -8.00  79.00    -0.23498    
  -8.00  80.00    -0.13459    
  -8.00  81.00    -0.15703E-01
  -8.00  82.00     0.98240E-01
  -8.00  83.00     0.18797    
  -8.00  84.00     0.24559    
  -8.00  85.00     0.27221    
  -8.00  86.00     0.27506    
  -8.00  87.00     0.26767    
  -8.00  88.00     0.25852    
  -8.00  89.00     0.25055    
  -7.00 -89.00    -0.11568    
  -7.00 -88.00    -0.12151    
  -7.00 -87.00    -0.86244E-01
  -7.00 -86.00    -0.11949E-01
  -7.00 -85.00     0.91143E-01
  -7.00 -84.00     0.21017    
  -7.00 -83.00     0.32577    
  -7.00 -82.00     0.42498    
  -7.00 -81.00     0.49192    
  -7.00 -80.00     0.52020    
  -7.00 -79.00     0.51121    
  -7.00 -78.00     0.47175    
  -7.00 -77.00     0.41166    
  -7.00 -76.00     0.34354    
  -7.00 -75.00     0.27744    
  -7.00 -74.00     0.21955    
  -7.00 -73.00     0.17296    
  -7.00 -72.00     0.13789    
  -7.00 -71.00     0.11359    
  -7.00 -70.00     0.98215E-01
  -7.00 -69.00     0.89949E-01
  -7.00 -68.00     0.86650E-01
  -7.00 -67.00     0.85149E-01
  -7.00 -66.00     0.81291E-01
  -7.00 -65.00     0.70587E-01
  -7.00 -64.00     0.48438E-01
  -7.00 -63.00     0.14616E-01
  -7.00 -62.00    -0.26958E-01
  -7.00 -61.00    -0.66996E-01
  -7.00 -60.00    -0.92163E-01
  -7.00 -59.00    -0.88739E-01
  -7.00 -58.00    -0.47264E-01
  -7.00 -57.00     0.33012E-01
  -7.00 -56.00     0.14158    
  -7.00 -55.00     0.25730    
  -7.00 -54.00     0.35221    
  -7.00 -53.00     0.39875    
  -7.00 -52.00     0.37721    
  -7.00 -51.00     0.28239    
  -7.00 -50.00     0.12650    
  -7.00 -49.00    -0.63303E-01
  -7.00 -48.00    -0.25116    
  -7.00 -47.00    -0.40196    
  -7.00 -46.00    -0.49114    
  -7.00 -45.00    -0.51149    
  -7.00 -44.00    -0.47487    
  -7.00 -43.00    -0.40828    
  -7.00 -42.00    -0.34543    
  -7.00 -41.00    -0.31595    
  -7.00 -40.00    -0.33632    
  -7.00 -39.00    -0.40439    
  -7.00 -38.00    -0.50032    
  -7.00 -37.00    -0.59296    
  -7.00 -36.00    -0.65005    
  -7.00 -35.00    -0.64881    
  -7.00 -34.00    -0.58373    
  -7.00 -33.00    -0.46889    
  -7.00 -32.00    -0.33412    
  -7.00 -31.00    -0.21620    
  -7.00 -30.00    -0.14783    
  -7.00 -29.00    -0.14789    
  -7.00 -28.00    -0.21598    
  -7.00 -27.00    -0.33279    
  -7.00 -26.00    -0.46627    
  -7.00 -25.00    -0.58131    
  -7.00 -24.00    -0.64998    
  -7.00 -23.00    -0.65914    
  -7.00 -22.00    -0.61315    
  -7.00 -21.00    -0.53126    
  -7.00 -20.00    -0.44066    
  -7.00 -19.00    -0.36789    
  -7.00 -18.00    -0.33125    
  -7.00 -17.00    -0.33677    
  -7.00 -16.00    -0.37850    
  -7.00 -15.00    -0.44277    
  -7.00 -14.00    -0.51447    
  -7.00 -13.00    -0.58288    
  -7.00 -12.00    -0.64501    
  -7.00 -11.00    -0.70522    
  -7.00 -10.00    -0.77148    
  -7.00  -9.00    -0.84995    
  -7.00  -8.00    -0.93992    
  -7.00  -7.00     -1.0313    
  -7.00  -6.00     -1.1057    
  -7.00  -5.00     -1.1414    
  -7.00  -4.00     -1.1197    
  -7.00  -3.00     -1.0319    
  -7.00  -2.00    -0.88302    
  -7.00  -1.00    -0.69212    
  -7.00   0.00    -0.48820    
  -7.00   1.00    -0.30310    
  -7.00   2.00    -0.16357    
  -7.00   3.00    -0.84828E-01
  -7.00   4.00    -0.67542E-01
  -7.00   5.00    -0.99143E-01
  -7.00   6.00    -0.15878    
  -7.00   7.00    -0.22433    
  -7.00   8.00    -0.27920    
  -7.00   9.00    -0.31679    
  -7.00  10.00    -0.34142    
  -7.00  11.00    -0.36558    
  -7.00  12.00    -0.40467    
  -7.00  13.00    -0.47087    
  -7.00  14.00    -0.56831    
  -7.00  15.00    -0.69087    
  -7.00  16.00    -0.82321    
  -7.00  17.00    -0.94456    
  -7.00  18.00     -1.0341    
  -7.00  19.00     -1.0759    
  -7.00  20.00     -1.0628    
  -7.00  21.00    -0.99732    
  -7.00  22.00    -0.89034    
  -7.00  23.00    -0.75778    
  -7.00  24.00    -0.61667    
  -7.00  25.00    -0.48157    
  -7.00  26.00    -0.36233    
  -7.00  27.00    -0.26351    
  -7.00  28.00    -0.18531    
  -7.00  29.00    -0.12540    
  -7.00  30.00    -0.80992E-01
  -7.00  31.00    -0.50373E-01
  -7.00  32.00    -0.33648E-01
  -7.00  33.00    -0.32499E-01
  -7.00  34.00    -0.49234E-01
  -7.00  35.00    -0.85440E-01
  -7.00  36.00    -0.14068    
  -7.00  37.00    -0.21159    
  -7.00  38.00    -0.29158    
  -7.00  39.00    -0.37133    
  -7.00  40.00    -0.44000    
  -7.00  41.00    -0.48706    
  -7.00  42.00    -0.50434    
  -7.00  43.00    -0.48814    
  -7.00  44.00    -0.44054    
  -7.00  45.00    -0.36971    
  -7.00  46.00    -0.28896    
  -7.00  47.00    -0.21400    
  -7.00  48.00    -0.15963    
  -7.00  49.00    -0.13601    
  -7.00  50.00    -0.14550    
  -7.00  51.00    -0.18162    
  -7.00  52.00    -0.22997    
  -7.00  53.00    -0.27193    
  -7.00  54.00    -0.28900    
  -7.00  55.00    -0.26876    
  -7.00  56.00    -0.20847    
  -7.00  57.00    -0.11653    
  -7.00  58.00    -0.10957E-01
  -7.00  59.00     0.85599E-01
  -7.00  60.00     0.15165    
  -7.00  61.00     0.17377    
  -7.00  62.00     0.15022    
  -7.00  63.00     0.91670E-01
  -7.00  64.00     0.18424E-01
  -7.00  65.00    -0.46156E-01
  -7.00  66.00    -0.82244E-01
  -7.00  67.00    -0.79981E-01
  -7.00  68.00    -0.42616E-01
  -7.00  69.00     0.14476E-01
  -7.00  70.00     0.68645E-01
  -7.00  71.00     0.97168E-01
  -7.00  72.00     0.84785E-01
  -7.00  73.00     0.28714E-01
  -7.00  74.00    -0.60084E-01
  -7.00  75.00    -0.15978    
  -7.00  76.00    -0.24362    
  -7.00  77.00    -0.28822    
  -7.00  78.00    -0.28012    
  -7.00  79.00    -0.21924    
  -7.00  80.00    -0.11818    
  -7.00  81.00     0.15087E-02
  -7.00  82.00     0.11620    
  -7.00  83.00     0.20612    
  -7.00  84.00     0.26294    
  -7.00  85.00     0.28789    
  -7.00  86.00     0.28790    
  -7.00  87.00     0.27709    
  -7.00  88.00     0.26415    
  -7.00  89.00     0.25292    
  -6.00 -89.00    -0.11475    
  -6.00 -88.00    -0.12021    
  -6.00 -87.00    -0.85367E-01
  -6.00 -86.00    -0.12047E-01
  -6.00 -85.00     0.88976E-01
  -6.00 -84.00     0.20521    
  -6.00 -83.00     0.31740    
  -6.00 -82.00     0.41312    
  -6.00 -81.00     0.47693    
  -6.00 -80.00     0.50333    
  -6.00 -79.00     0.49420    
  -6.00 -78.00     0.45670    
  -6.00 -77.00     0.40048    
  -6.00 -76.00     0.33730    
  -6.00 -75.00     0.27595    
  -6.00 -74.00     0.22124    
  -6.00 -73.00     0.17507    
  -6.00 -72.00     0.13705    
  -6.00 -71.00     0.10690    
  -6.00 -70.00     0.83840E-01
  -6.00 -69.00     0.67919E-01
  -6.00 -68.00     0.58943E-01
  -6.00 -67.00     0.55282E-01
  -6.00 -66.00     0.53474E-01
  -6.00 -65.00     0.48414E-01
  -6.00 -64.00     0.34223E-01
  -6.00 -63.00     0.84123E-02
  -6.00 -62.00    -0.27048E-01
  -6.00 -61.00    -0.64597E-01
  -6.00 -60.00    -0.91294E-01
  -6.00 -59.00    -0.92782E-01
  -6.00 -58.00    -0.57957E-01
  -6.00 -57.00     0.16022E-01
  -6.00 -56.00     0.12059    
  -6.00 -55.00     0.23566    
  -6.00 -54.00     0.33331    
  -6.00 -53.00     0.38492    
  -6.00 -52.00     0.36885    
  -6.00 -51.00     0.27792    
  -6.00 -50.00     0.12269    
  -6.00 -49.00    -0.70402E-01
  -6.00 -48.00    -0.26512    
  -6.00 -47.00    -0.42516    
  -6.00 -46.00    -0.52424    
  -6.00 -45.00    -0.55359    
  -6.00 -44.00    -0.52410    
  -6.00 -43.00    -0.46264    
  -6.00 -42.00    -0.40361    
  -6.00 -41.00    -0.37783    
  -6.00 -40.00    -0.40295    
  -6.00 -39.00    -0.47748    
  -6.00 -38.00    -0.58148    
  -6.00 -37.00    -0.68289    
  -6.00 -36.00    -0.74798    
  -6.00 -35.00    -0.75248    
  -6.00 -34.00    -0.68988    
  -6.00 -33.00    -0.57415    
  -6.00 -32.00    -0.43603    
  -6.00 -31.00    -0.31403    
  -6.00 -30.00    -0.24295    
  -6.00 -29.00    -0.24352    
  -6.00 -28.00    -0.31626    
  -6.00 -27.00    -0.44162    
  -6.00 -26.00    -0.58593    
  -6.00 -25.00    -0.71145    
  -6.00 -24.00    -0.78719    
  -6.00 -23.00    -0.79719    
  -6.00 -22.00    -0.74396    
  -6.00 -21.00    -0.64639    
  -6.00 -20.00    -0.53302    
  -6.00 -19.00    -0.43324    
  -6.00 -18.00    -0.36932    
  -6.00 -17.00    -0.35160    
  -6.00 -16.00    -0.37801    
  -6.00 -15.00    -0.43763    
  -6.00 -14.00    -0.51633    
  -6.00 -13.00    -0.60236    
  -6.00 -12.00    -0.68978    
  -6.00 -11.00    -0.77845    
  -6.00 -10.00    -0.87112    
  -6.00  -9.00    -0.96881    
  -6.00  -8.00     -1.0667    
  -6.00  -7.00     -1.1527    
  -6.00  -6.00     -1.2085    
  -6.00  -5.00     -1.2151    
  -6.00  -4.00     -1.1584    
  -6.00  -3.00     -1.0354    
  -6.00  -2.00    -0.85687    
  -6.00  -1.00    -0.64634    
  -6.00   0.00    -0.43516    
  -6.00   1.00    -0.25487    
  -6.00   2.00    -0.12934    
  -6.00   3.00    -0.69044E-01
  -6.00   4.00    -0.69184E-01
  -6.00   5.00    -0.11226    
  -6.00   6.00    -0.17419    
  -6.00   7.00    -0.23210    
  -6.00   8.00    -0.27121    
  -6.00   9.00    -0.28884    
  -6.00  10.00    -0.29437    
  -6.00  11.00    -0.30524    
  -6.00  12.00    -0.34052    
  -6.00  13.00    -0.41404    
  -6.00  14.00    -0.52926    
  -6.00  15.00    -0.67729    
  -6.00  16.00    -0.83874    
  -6.00  17.00    -0.98838    
  -6.00  18.00     -1.1014    
  -6.00  19.00     -1.1593    
  -6.00  20.00     -1.1534    
  -6.00  21.00     -1.0866    
  -6.00  22.00    -0.97074    
  -6.00  23.00    -0.82347    
  -6.00  24.00    -0.66357    
  -6.00  25.00    -0.50721    
  -6.00  26.00    -0.36558    
  -6.00  27.00    -0.24445    
  -6.00  28.00    -0.14527    
  -6.00  29.00    -0.67148E-01
  -6.00  30.00    -0.88625E-02
  -6.00  31.00     0.29699E-01
  -6.00  32.00     0.47120E-01
  -6.00  33.00     0.40991E-01
  -6.00  34.00     0.91350E-02
  -6.00  35.00    -0.48959E-01
  -6.00  36.00    -0.13090    
  -6.00  37.00    -0.23073    
  -6.00  38.00    -0.33901    
  -6.00  39.00    -0.44366    
  -6.00  40.00    -0.53153    
  -6.00  41.00    -0.59046    
  -6.00  42.00    -0.61146    
  -6.00  43.00    -0.59089    
  -6.00  44.00    -0.53168    
  -6.00  45.00    -0.44361    
  -6.00  46.00    -0.34224    
  -6.00  47.00    -0.24586    
  -6.00  48.00    -0.17208    
  -6.00  49.00    -0.13361    
  -6.00  50.00    -0.13478    
  -6.00  51.00    -0.17011    
  -6.00  52.00    -0.22498    
  -6.00  53.00    -0.27927    
  -6.00  54.00    -0.31199    
  -6.00  55.00    -0.30757    
  -6.00  56.00    -0.26015    
  -6.00  57.00    -0.17567    
  -6.00  58.00    -0.70829E-01
  -6.00  59.00     0.31639E-01
  -6.00  60.00     0.10869    
  -6.00  61.00     0.14453    
  -6.00  62.00     0.13456    
  -6.00  63.00     0.87045E-01
  -6.00  64.00     0.20625E-01
  -6.00  65.00    -0.41767E-01
  -6.00  66.00    -0.79627E-01
  -6.00  67.00    -0.81613E-01
  -6.00  68.00    -0.49017E-01
  -6.00  69.00     0.44148E-02
  -6.00  70.00     0.57114E-01
  -6.00  71.00     0.86767E-01
  -6.00  72.00     0.77630E-01
  -6.00  73.00     0.26042E-01
  -6.00  74.00    -0.58097E-01
  -6.00  75.00    -0.15370    
  -6.00  76.00    -0.23448    
  -6.00  77.00    -0.27700    
  -6.00  78.00    -0.26750    
  -6.00  79.00    -0.20540    
  -6.00  80.00    -0.10313    
  -6.00  81.00     0.17810E-01
  -6.00  82.00     0.13361    
  -6.00  83.00     0.22400    
  -6.00  84.00     0.28021    
  -6.00  85.00     0.30353    
  -6.00  86.00     0.30076    
  -6.00  87.00     0.28652    
  -6.00  88.00     0.26980    
  -6.00  89.00     0.25531    
