-168.00  69.00    -0.69891    
-168.00  70.00    -0.48140    
-168.00  71.00    -0.24263    
-168.00  72.00    -0.41588E-01
-168.00  73.00     0.69837E-01
-168.00  74.00     0.63237E-01
-168.00  75.00    -0.66408E-01
-168.00  76.00    -0.29389    
-168.00  77.00    -0.57744    
-168.00  78.00    -0.86739    
-168.00  79.00     -1.1207    
-168.00  80.00     -1.3080    
-168.00  81.00     -1.4246    
-168.00  82.00     -1.4818    
-168.00  83.00     -1.5045    
-168.00  84.00     -1.5199    
-168.00  85.00     -1.5509    
-168.00  86.00     -1.5981    
-168.00  87.00     -1.6534    
-168.00  88.00     -1.6988    
-168.00  89.00     -1.7117    
-167.00 -89.00     0.58584    
-167.00 -88.00     0.49353    
-167.00 -87.00     0.38935    
-167.00 -86.00     0.28293    
-167.00 -85.00     0.17148    
-167.00 -84.00     0.42170E-01
-167.00 -83.00    -0.11678    
-167.00 -82.00    -0.32397    
-167.00 -81.00    -0.57871    
-167.00 -80.00    -0.86986    
-167.00 -79.00     -1.1771    
-167.00 -78.00     -1.4701    
-167.00 -77.00     -1.7223    
-167.00 -76.00     -1.9137    
-167.00 -75.00     -2.0381    
-167.00 -74.00     -2.1053    
-167.00 -73.00     -2.1328    
-167.00 -72.00     -2.1425    
-167.00 -71.00     -2.1462    
-167.00 -70.00     -2.1491    
-167.00 -69.00     -2.1407    
-167.00 -68.00     -2.1028    
-167.00 -67.00     -2.0161    
-167.00 -66.00     -1.8700    
-167.00 -65.00     -1.6687    
-167.00 -64.00     -1.4345    
-167.00 -63.00     -1.2039    
-167.00 -62.00     -1.0197    
-167.00 -61.00    -0.91984    
-167.00 -60.00    -0.92693    
-167.00 -59.00     -1.0424    
-167.00 -58.00     -1.2443    
-167.00 -57.00     -1.4934    
-167.00 -56.00     -1.7413    
-167.00 -55.00     -1.9416    
-167.00 -54.00     -2.0591    
-167.00 -53.00     -2.0764    
-167.00 -52.00     -1.9931    
-167.00 -51.00     -1.8237    
-167.00 -50.00     -1.5917    
-167.00 -49.00     -1.3241    
-167.00 -48.00     -1.0449    
-167.00 -47.00    -0.77531    
-167.00 -46.00    -0.53316    
-167.00 -45.00    -0.33349    
-167.00 -44.00    -0.18989    
-167.00 -43.00    -0.11409    
-167.00 -42.00    -0.11343    
-167.00 -41.00    -0.18799    
-167.00 -40.00    -0.32807    
-167.00 -39.00    -0.51432    
-167.00 -38.00    -0.72025    
-167.00 -37.00    -0.91801    
-167.00 -36.00     -1.0854    
-167.00 -35.00     -1.2120    
-167.00 -34.00     -1.3025    
-167.00 -33.00     -1.3753    
-167.00 -32.00     -1.4571    
-167.00 -31.00     -1.5742    
-167.00 -30.00     -1.7437    
-167.00 -29.00     -1.9671    
-167.00 -28.00     -2.2285    
-167.00 -27.00     -2.4986    
-167.00 -26.00     -2.7428    
-167.00 -25.00     -2.9311    
-167.00 -24.00     -3.0470    
-167.00 -23.00     -3.0921    
-167.00 -22.00     -3.0845    
-167.00 -21.00     -3.0530    
-167.00 -20.00     -3.0267    
-167.00 -19.00     -3.0258    
-167.00 -18.00     -3.0544    
-167.00 -17.00     -3.0996    
-167.00 -16.00     -3.1356    
-167.00 -15.00     -3.1321    
-167.00 -14.00     -3.0649    
-167.00 -13.00     -2.9234    
-167.00 -12.00     -2.7153    
-167.00 -11.00     -2.4640    
-167.00 -10.00     -2.2031    
-167.00  -9.00     -1.9665    
-167.00  -8.00     -1.7802    
-167.00  -7.00     -1.6564    
-167.00  -6.00     -1.5927    
-167.00  -5.00     -1.5752    
-167.00  -4.00     -1.5849    
-167.00  -3.00     -1.6040    
-167.00  -2.00     -1.6211    
-167.00  -1.00     -1.6321    
-167.00   0.00     -1.6381    
-167.00   1.00     -1.6416    
-167.00   2.00     -1.6420    
-167.00   3.00     -1.6334    
-167.00   4.00     -1.6062    
-167.00   5.00     -1.5510    
-167.00   6.00     -1.4646    
-167.00   7.00     -1.3548    
-167.00   8.00     -1.2420    
-167.00   9.00     -1.1563    
-167.00  10.00     -1.1306    
-167.00  11.00     -1.1906    
-167.00  12.00     -1.3454    
-167.00  13.00     -1.5820    
-167.00  14.00     -1.8653    
-167.00  15.00     -2.1442    
-167.00  16.00     -2.3636    
-167.00  17.00     -2.4774    
-167.00  18.00     -2.4606    
-167.00  19.00     -2.3158    
-167.00  20.00     -2.0731    
-167.00  21.00     -1.7826    
-167.00  22.00     -1.5018    
-167.00  23.00     -1.2824    
-167.00  24.00     -1.1577    
-167.00  25.00     -1.1362    
-167.00  26.00     -1.2015    
-167.00  27.00     -1.3185    
-167.00  28.00     -1.4432    
-167.00  29.00     -1.5348    
-167.00  30.00     -1.5647    
-167.00  31.00     -1.5219    
-167.00  32.00     -1.4141    
-167.00  33.00     -1.2629    
-167.00  34.00     -1.0972    
-167.00  35.00    -0.94609    
-167.00  36.00    -0.83164    
-167.00  37.00    -0.76566    
-167.00  38.00    -0.74855    
-167.00  39.00    -0.77089    
-167.00  40.00    -0.81682    
-167.00  41.00    -0.86789    
-167.00  42.00    -0.90662    
-167.00  43.00    -0.91957    
-167.00  44.00    -0.89879    
-167.00  45.00    -0.84266    
-167.00  46.00    -0.75513    
-167.00  47.00    -0.64486    
-167.00  48.00    -0.52278    
-167.00  49.00    -0.39931    
-167.00  50.00    -0.28240    
-167.00  51.00    -0.17513    
-167.00  52.00    -0.75499E-01
-167.00  53.00     0.22380E-01
-167.00  54.00     0.12514    
-167.00  55.00     0.23710    
-167.00  56.00     0.35550    
-167.00  57.00     0.46897    
-167.00  58.00     0.55749    
-167.00  59.00     0.59736    
-167.00  60.00     0.56535    
-167.00  61.00     0.44814    
-167.00  62.00     0.24742    
-167.00  63.00    -0.16433E-01
-167.00  64.00    -0.30665    
-167.00  65.00    -0.57584    
-167.00  66.00    -0.77742    
-167.00  67.00    -0.87585    
-167.00  68.00    -0.85692    
-167.00  69.00    -0.73228    
-167.00  70.00    -0.53748    
-167.00  71.00    -0.32434    
-167.00  72.00    -0.14794    
-167.00  73.00    -0.56312E-01
-167.00  74.00    -0.73609E-01
-167.00  75.00    -0.20244    
-167.00  76.00    -0.41703    
-167.00  77.00    -0.67761    
-167.00  78.00    -0.93847    
-167.00  79.00     -1.1615    
-167.00  80.00     -1.3220    
-167.00  81.00     -1.4185    
-167.00  82.00     -1.4637    
-167.00  83.00     -1.4824    
-167.00  84.00     -1.4994    
-167.00  85.00     -1.5348    
-167.00  86.00     -1.5874    
-167.00  87.00     -1.6472    
-167.00  88.00     -1.6958    
-167.00  89.00     -1.7104    
-166.00 -89.00     0.58421    
-166.00 -88.00     0.48928    
-166.00 -87.00     0.38223    
-166.00 -86.00     0.27437    
-166.00 -85.00     0.16451    
-166.00 -84.00     0.41208E-01
-166.00 -83.00    -0.10613    
-166.00 -82.00    -0.29669    
-166.00 -81.00    -0.53225    
-166.00 -80.00    -0.80473    
-166.00 -79.00     -1.0970    
-166.00 -78.00     -1.3821    
-166.00 -77.00     -1.6352    
-166.00 -76.00     -1.8369    
-166.00 -75.00     -1.9793    
-166.00 -74.00     -2.0693    
-166.00 -73.00     -2.1210    
-166.00 -72.00     -2.1523    
-166.00 -71.00     -2.1728    
-166.00 -70.00     -2.1856    
-166.00 -69.00     -2.1798    
-166.00 -68.00     -2.1377    
-166.00 -67.00     -2.0415    
-166.00 -66.00     -1.8821    
-166.00 -65.00     -1.6651    
-166.00 -64.00     -1.4142    
-166.00 -63.00     -1.1666    
-166.00 -62.00    -0.96585    
-166.00 -61.00    -0.85048    
-166.00 -60.00    -0.84399    
-166.00 -59.00    -0.94843    
-166.00 -58.00     -1.1430    
-166.00 -57.00     -1.3889    
-166.00 -56.00     -1.6385    
-166.00 -55.00     -1.8461    
-166.00 -54.00     -1.9769    
-166.00 -53.00     -2.0130    
-166.00 -52.00     -1.9541    
-166.00 -51.00     -1.8135    
-166.00 -50.00     -1.6132    
-166.00 -49.00     -1.3770    
-166.00 -48.00     -1.1262    
-166.00 -47.00    -0.87803    
-166.00 -46.00    -0.64655    
-166.00 -45.00    -0.44437    
-166.00 -44.00    -0.28412    
-166.00 -43.00    -0.17900    
-166.00 -42.00    -0.13999    
-166.00 -41.00    -0.17246    
-166.00 -40.00    -0.27269    
-166.00 -39.00    -0.42630    
-166.00 -38.00    -0.60963    
-166.00 -37.00    -0.79455    
-166.00 -36.00    -0.95529    
-166.00 -35.00     -1.0755    
-166.00 -34.00     -1.1529    
-166.00 -33.00     -1.2000    
-166.00 -32.00     -1.2404    
-166.00 -31.00     -1.3014    
-166.00 -30.00     -1.4050    
-166.00 -29.00     -1.5608    
-166.00 -28.00     -1.7623    
-166.00 -27.00     -1.9886    
-166.00 -26.00     -2.2104    
-166.00 -25.00     -2.3987    
-166.00 -24.00     -2.5332    
-166.00 -23.00     -2.6082    
-166.00 -22.00     -2.6330    
-166.00 -21.00     -2.6280    
-166.00 -20.00     -2.6167    
-166.00 -19.00     -2.6176    
-166.00 -18.00     -2.6374    
-166.00 -17.00     -2.6690    
-166.00 -16.00     -2.6938    
-166.00 -15.00     -2.6886    
-166.00 -14.00     -2.6340    
-166.00 -13.00     -2.5217    
-166.00 -12.00     -2.3579    
-166.00 -11.00     -2.1628    
-166.00 -10.00     -1.9650    
-166.00  -9.00     -1.7938    
-166.00  -8.00     -1.6712    
-166.00  -7.00     -1.6066    
-166.00  -6.00     -1.5960    
-166.00  -5.00     -1.6242    
-166.00  -4.00     -1.6709    
-166.00  -3.00     -1.7169    
-166.00  -2.00     -1.7490    
-166.00  -1.00     -1.7616    
-166.00   0.00     -1.7558    
-166.00   1.00     -1.7355    
-166.00   2.00     -1.7033    
-166.00   3.00     -1.6587    
-166.00   4.00     -1.5979    
-166.00   5.00     -1.5166    
-166.00   6.00     -1.4153    
-166.00   7.00     -1.3024    
-166.00   8.00     -1.1961    
-166.00   9.00     -1.1219    
-166.00  10.00     -1.1068    
-166.00  11.00     -1.1708    
-166.00  12.00     -1.3189    
-166.00  13.00     -1.5368    
-166.00  14.00     -1.7907    
-166.00  15.00     -2.0339    
-166.00  16.00     -2.2163    
-166.00  17.00     -2.2976    
-166.00  18.00     -2.2571    
-166.00  19.00     -2.0999    
-166.00  20.00     -1.8562    
-166.00  21.00     -1.5743    
-166.00  22.00     -1.3090    
-166.00  23.00     -1.1084    
-166.00  24.00     -1.0031    
-166.00  25.00    -0.99964    
-166.00  26.00     -1.0808    
-166.00  27.00     -1.2117    
-166.00  28.00     -1.3497    
-166.00  29.00     -1.4549    
-166.00  30.00     -1.5004    
-166.00  31.00     -1.4761    
-166.00  32.00     -1.3900    
-166.00  33.00     -1.2635    
-166.00  34.00     -1.1244    
-166.00  35.00    -0.99977    
-166.00  36.00    -0.90917    
-166.00  37.00    -0.86146    
-166.00  38.00    -0.85423    
-166.00  39.00    -0.87602    
-166.00  40.00    -0.91029    
-166.00  41.00    -0.93978    
-166.00  42.00    -0.95031    
-166.00  43.00    -0.93316    
-166.00  44.00    -0.88614    
-166.00  45.00    -0.81294    
-166.00  46.00    -0.72128    
-166.00  47.00    -0.62102    
-166.00  48.00    -0.52115    
-166.00  49.00    -0.42746    
-166.00  50.00    -0.34142    
-166.00  51.00    -0.25920    
-166.00  52.00    -0.17317    
-166.00  53.00    -0.74251E-01
-166.00  54.00     0.44127E-01
-166.00  55.00     0.18309    
-166.00  56.00     0.33446    
-166.00  57.00     0.48071    
-166.00  58.00     0.59635    
-166.00  59.00     0.65409    
-166.00  60.00     0.62967    
-166.00  61.00     0.51105    
-166.00  62.00     0.30281    
-166.00  63.00     0.28418E-01
-166.00  64.00    -0.27281    
-166.00  65.00    -0.55257    
-166.00  66.00    -0.76493    
-166.00  67.00    -0.87614    
-166.00  68.00    -0.87397    
-166.00  69.00    -0.77114    
-166.00  70.00    -0.60263    
-166.00  71.00    -0.41795    
-166.00  72.00    -0.26787    
-166.00  73.00    -0.19624    
-166.00  74.00    -0.22314    
-166.00  75.00    -0.34904    
-166.00  76.00    -0.54811    
-166.00  77.00    -0.78302    
-166.00  78.00     -1.0124    
-166.00  79.00     -1.2034    
-166.00  80.00     -1.3358    
-166.00  81.00     -1.4115    
-166.00  82.00     -1.4446    
-166.00  83.00     -1.4594    
-166.00  84.00     -1.4784    
-166.00  85.00     -1.5183    
-166.00  86.00     -1.5765    
-166.00  87.00     -1.6409    
-166.00  88.00     -1.6927    
-166.00  89.00     -1.7092    
-165.00 -89.00     0.58261    
-165.00 -88.00     0.48504    
-165.00 -87.00     0.37504    
-165.00 -86.00     0.26562    
-165.00 -85.00     0.15712    
-165.00 -84.00     0.39585E-01
-165.00 -83.00    -0.96512E-01
-165.00 -82.00    -0.27053    
-165.00 -81.00    -0.48692    
-165.00 -80.00    -0.74060    
-165.00 -79.00     -1.0175    
-165.00 -78.00     -1.2940    
-165.00 -77.00     -1.5472    
-165.00 -76.00     -1.7579    
-165.00 -75.00     -1.9166    
-165.00 -74.00     -2.0274    
-165.00 -73.00     -2.1009    
-165.00 -72.00     -2.1514    
-165.00 -71.00     -2.1863    
-165.00 -70.00     -2.2070    
-165.00 -69.00     -2.2023    
-165.00 -68.00     -2.1557    
-165.00 -67.00     -2.0511    
-165.00 -66.00     -1.8812    
-165.00 -65.00     -1.6527    
-165.00 -64.00     -1.3906    
-165.00 -63.00     -1.1323    
-165.00 -62.00    -0.92160    
-165.00 -61.00    -0.79669    
-165.00 -60.00    -0.78130    
-165.00 -59.00    -0.87759    
-165.00 -58.00     -1.0653    
-165.00 -57.00     -1.3064    
-165.00 -56.00     -1.5543    
-165.00 -55.00     -1.7642    
-165.00 -54.00     -1.9024    
-165.00 -53.00     -1.9523    
-165.00 -52.00     -1.9137    
-165.00 -51.00     -1.8001    
-165.00 -50.00     -1.6322    
-165.00 -49.00     -1.4314    
-165.00 -48.00     -1.2158    
-165.00 -47.00    -0.99808    
-165.00 -46.00    -0.78782    
-165.00 -45.00    -0.59386    
-165.00 -44.00    -0.42650    
-165.00 -43.00    -0.29892    
-165.00 -42.00    -0.22449    
-165.00 -41.00    -0.21301    
-165.00 -40.00    -0.26647    
-165.00 -39.00    -0.37583    
-165.00 -38.00    -0.52130    
-165.00 -37.00    -0.67606    
-165.00 -36.00    -0.81275    
-165.00 -35.00    -0.91098    
-165.00 -34.00    -0.96327    
-165.00 -33.00    -0.97744    
-165.00 -32.00    -0.97434    
-165.00 -31.00    -0.98160    
-165.00 -30.00     -1.0250    
-165.00 -29.00     -1.1207    
-165.00 -28.00     -1.2696    
-165.00 -27.00     -1.4577    
-165.00 -26.00     -1.6598    
-165.00 -25.00     -1.8475    
-165.00 -24.00     -1.9974    
-165.00 -23.00     -2.0978    
-165.00 -22.00     -2.1507    
-165.00 -21.00     -2.1700    
-165.00 -20.00     -2.1753    
-165.00 -19.00     -2.1843    
-165.00 -18.00     -2.2061    
-165.00 -17.00     -2.2384    
-165.00 -16.00     -2.2682    
-165.00 -15.00     -2.2772    
-165.00 -14.00     -2.2485    
-165.00 -13.00     -2.1738    
-165.00 -12.00     -2.0568    
-165.00 -11.00     -1.9139    
-165.00 -10.00     -1.7693    
-165.00  -9.00     -1.6488    
-165.00  -8.00     -1.5727    
-165.00  -7.00     -1.5499    
-165.00  -6.00     -1.5770    
-165.00  -5.00     -1.6398    
-165.00  -4.00     -1.7180    
-165.00  -3.00     -1.7917    
-165.00  -2.00     -1.8459    
-165.00  -1.00     -1.8731    
-165.00   0.00     -1.8725    
-165.00   1.00     -1.8479    
-165.00   2.00     -1.8034    
-165.00   3.00     -1.7412    
-165.00   4.00     -1.6612    
-165.00   5.00     -1.5628    
-165.00   6.00     -1.4483    
-165.00   7.00     -1.3263    
-165.00   8.00     -1.2128    
-165.00   9.00     -1.1299    
-165.00  10.00     -1.1005    
-165.00  11.00     -1.1417    
-165.00  12.00     -1.2577    
-165.00  13.00     -1.4358    
-165.00  14.00     -1.6466    
-165.00  15.00     -1.8488    
-165.00  16.00     -1.9983    
-165.00  17.00     -2.0590    
-165.00  18.00     -2.0124    
-165.00  19.00     -1.8629    
-165.00  20.00     -1.6372    
-165.00  21.00     -1.3788    
-165.00  22.00     -1.1372    
-165.00  23.00    -0.95629    
-165.00  24.00    -0.86414    
-165.00  25.00    -0.86727    
-165.00  26.00    -0.95047    
-165.00  27.00     -1.0822    
-165.00  28.00     -1.2234    
-165.00  29.00     -1.3379    
-165.00  30.00     -1.4004    
-165.00  31.00     -1.4018    
-165.00  32.00     -1.3488    
-165.00  33.00     -1.2605    
-165.00  34.00     -1.1615    
-165.00  35.00     -1.0749    
-165.00  36.00     -1.0165    
-165.00  37.00    -0.99176    
-165.00  38.00    -0.99568    
-165.00  39.00     -1.0155    
-165.00  40.00     -1.0352    
-165.00  41.00     -1.0395    
-165.00  42.00     -1.0186    
-165.00  43.00    -0.96875    
-165.00  44.00    -0.89383    
-165.00  45.00    -0.80284    
-165.00  46.00    -0.70717    
-165.00  47.00    -0.61780    
-165.00  48.00    -0.54185    
-165.00  49.00    -0.48061    
-165.00  50.00    -0.42915    
-165.00  51.00    -0.37678    
-165.00  52.00    -0.30997    
-165.00  53.00    -0.21602    
-165.00  54.00    -0.87620E-01
-165.00  55.00     0.73984E-01
-165.00  56.00     0.25607    
-165.00  57.00     0.43558    
-165.00  58.00     0.58188    
-165.00  59.00     0.66388    
-165.00  60.00     0.65568    
-165.00  61.00     0.54553    
-165.00  62.00     0.33973    
-165.00  63.00     0.63700E-01
-165.00  64.00    -0.24165    
-165.00  65.00    -0.52770    
-165.00  66.00    -0.74922    
-165.00  67.00    -0.87401    
-165.00  68.00    -0.89110    
-165.00  69.00    -0.81345    
-165.00  70.00    -0.67468    
-165.00  71.00    -0.52114    
-165.00  72.00    -0.39903    
-165.00  73.00    -0.34763    
-165.00  74.00    -0.38319    
-165.00  75.00    -0.50428    
-165.00  76.00    -0.68554    
-165.00  77.00    -0.89241    
-165.00  78.00     -1.0882    
-165.00  79.00     -1.2457    
-165.00  80.00     -1.3491    
-165.00  81.00     -1.4035    
-165.00  82.00     -1.4244    
-165.00  83.00     -1.4356    
-165.00  84.00     -1.4569    
-165.00  85.00     -1.5015    
-165.00  86.00     -1.5654    
-165.00  87.00     -1.6346    
-165.00  88.00     -1.6896    
-165.00  89.00     -1.7079    
-164.00 -89.00     0.58102    
-164.00 -88.00     0.48081    
-164.00 -87.00     0.36781    
-164.00 -86.00     0.25666    
-164.00 -85.00     0.14926    
-164.00 -84.00     0.37231E-01
-164.00 -83.00    -0.88049E-01
-164.00 -82.00    -0.24573    
-164.00 -81.00    -0.44307    
-164.00 -80.00    -0.67793    
-164.00 -79.00    -0.93918    
-164.00 -78.00     -1.2065    
-164.00 -77.00     -1.4587    
-164.00 -76.00     -1.6770    
-164.00 -75.00     -1.8502    
-164.00 -74.00     -1.9796    
-164.00 -73.00     -2.0724    
-164.00 -72.00     -2.1393    
-164.00 -71.00     -2.1860    
-164.00 -70.00     -2.2123    
-164.00 -69.00     -2.2073    
-164.00 -68.00     -2.1561    
-164.00 -67.00     -2.0443    
-164.00 -66.00     -1.8665    
-164.00 -65.00     -1.6309    
-164.00 -64.00     -1.3631    
-164.00 -63.00     -1.1006    
-164.00 -62.00    -0.88646    
-164.00 -61.00    -0.75809    
-164.00 -60.00    -0.73874    
-164.00 -59.00    -0.83011    
-164.00 -58.00     -1.0122    
-164.00 -57.00     -1.2476    
-164.00 -56.00     -1.4909    
-164.00 -55.00     -1.6988    
-164.00 -54.00     -1.8394    
-164.00 -53.00     -1.8975    
-164.00 -52.00     -1.8744    
-164.00 -51.00     -1.7844    
-164.00 -50.00     -1.6474    
-164.00 -49.00     -1.4829    
-164.00 -48.00     -1.3059    
-164.00 -47.00     -1.1247    
-164.00 -46.00    -0.94349    
-164.00 -45.00    -0.76655    
-164.00 -44.00    -0.60070    
-164.00 -43.00    -0.45773    
-164.00 -42.00    -0.35215    
-164.00 -41.00    -0.29729    
-164.00 -40.00    -0.30038    
-164.00 -39.00    -0.35802    
-164.00 -38.00    -0.45529    
-164.00 -37.00    -0.56833    
-164.00 -36.00    -0.67025    
-164.00 -35.00    -0.73879    
-164.00 -34.00    -0.76310    
-164.00 -33.00    -0.74737    
-164.00 -32.00    -0.70999    
-164.00 -31.00    -0.67824    
-164.00 -30.00    -0.68010    
-164.00 -29.00    -0.73576    
-164.00 -28.00    -0.85144    
-164.00 -27.00     -1.0176    
-164.00 -26.00     -1.2117    
-164.00 -25.00     -1.4053    
-164.00 -24.00     -1.5723    
-164.00 -23.00     -1.6961    
-164.00 -22.00     -1.7734    
-164.00 -21.00     -1.8134    
-164.00 -20.00     -1.8332    
-164.00 -19.00     -1.8508    
-164.00 -18.00     -1.8779    
-164.00 -17.00     -1.9165    
-164.00 -16.00     -1.9576    
-164.00 -15.00     -1.9858    
-164.00 -14.00     -1.9849    
-164.00 -13.00     -1.9449    
-164.00 -12.00     -1.8660    
-164.00 -11.00     -1.7603    
-164.00 -10.00     -1.6486    
-164.00  -9.00     -1.5546    
-164.00  -8.00     -1.4988    
-164.00  -7.00     -1.4922    
-164.00  -6.00     -1.5344    
-164.00  -5.00     -1.6141    
-164.00  -4.00     -1.7130    
-164.00  -3.00     -1.8112    
-164.00  -2.00     -1.8922    
-164.00  -1.00     -1.9456    
-164.00   0.00     -1.9677    
-164.00   1.00     -1.9599    
-164.00   2.00     -1.9251    
-164.00   3.00     -1.8660    
-164.00   4.00     -1.7836    
-164.00   5.00     -1.6785    
-164.00   6.00     -1.5537    
-164.00   7.00     -1.4174    
-164.00   8.00     -1.2841    
-164.00   9.00     -1.1739    
-164.00  10.00     -1.1082    
-164.00  11.00     -1.1043    
-164.00  12.00     -1.1687    
-164.00  13.00     -1.2936    
-164.00  14.00     -1.4557    
-164.00  15.00     -1.6202    
-164.00  16.00     -1.7484    
-164.00  17.00     -1.8068    
-164.00  18.00     -1.7761    
-164.00  19.00     -1.6563    
-164.00  20.00     -1.4675    
-164.00  21.00     -1.2454    
-164.00  22.00     -1.0326    
-164.00  23.00    -0.86838    
-164.00  24.00    -0.77946    
-164.00  25.00    -0.77450    
-164.00  26.00    -0.84312    
-164.00  27.00    -0.96000    
-164.00  28.00     -1.0924    
-164.00  29.00     -1.2088    
-164.00  30.00     -1.2867    
-164.00  31.00     -1.3167    
-164.00  32.00     -1.3032    
-164.00  33.00     -1.2610    
-164.00  34.00     -1.2096    
-164.00  35.00     -1.1669    
-164.00  36.00     -1.1441    
-164.00  37.00     -1.1433    
-164.00  38.00     -1.1574    
-164.00  39.00     -1.1732    
-164.00  40.00     -1.1760    
-164.00  41.00     -1.1536    
-164.00  42.00     -1.1004    
-164.00  43.00     -1.0182    
-164.00  44.00    -0.91643    
-164.00  45.00    -0.80901    
-164.00  46.00    -0.71077    
-164.00  47.00    -0.63366    
-164.00  48.00    -0.58300    
-164.00  49.00    -0.55595    
-164.00  50.00    -0.54149    
-164.00  51.00    -0.52236    
-164.00  52.00    -0.47918    
-164.00  53.00    -0.39529    
-164.00  54.00    -0.26203    
-164.00  55.00    -0.82166E-01
-164.00  56.00     0.12796    
-164.00  57.00     0.34046    
-164.00  58.00     0.52002    
-164.00  59.00     0.63165    
-164.00  60.00     0.64732    
-164.00  61.00     0.55468    
-164.00  62.00     0.36060    
-164.00  63.00     0.91333E-01
-164.00  64.00    -0.21156    
-164.00  65.00    -0.49971    
-164.00  66.00    -0.72874    
-164.00  67.00    -0.86773    
-164.00  68.00    -0.90635    
-164.00  69.00    -0.85704    
-164.00  70.00    -0.75121    
-164.00  71.00    -0.63130    
-164.00  72.00    -0.53876    
-164.00  73.00    -0.50791    
-164.00  74.00    -0.55137    
-164.00  75.00    -0.66605    
-164.00  76.00    -0.82756    
-164.00  77.00     -1.0044    
-164.00  78.00     -1.1650    
-164.00  79.00     -1.2878    
-164.00  80.00     -1.3615    
-164.00  81.00     -1.3945    
-164.00  82.00     -1.4032    
-164.00  83.00     -1.4110    
-164.00  84.00     -1.4349    
-164.00  85.00     -1.4844    
-164.00  86.00     -1.5542    
-164.00  87.00     -1.6281    
-164.00  88.00     -1.6864    
-164.00  89.00     -1.7066    
-163.00 -89.00     0.57945    
-163.00 -88.00     0.47660    
-163.00 -87.00     0.36054    
-163.00 -86.00     0.24749    
-163.00 -85.00     0.14091    
-163.00 -84.00     0.34083E-01
-163.00 -83.00    -0.80861E-01
-163.00 -82.00    -0.22253    
-163.00 -81.00    -0.40105    
-163.00 -80.00    -0.61716    
-163.00 -79.00    -0.86252    
-163.00 -78.00     -1.1200    
-163.00 -77.00     -1.3703    
-163.00 -76.00     -1.5947    
-163.00 -75.00     -1.7804    
-163.00 -74.00     -1.9260    
-163.00 -73.00     -2.0353    
-163.00 -72.00     -2.1158    
-163.00 -71.00     -2.1716    
-163.00 -70.00     -2.2013    
-163.00 -69.00     -2.1946    
-163.00 -68.00     -2.1385    
-163.00 -67.00     -2.0208    
-163.00 -66.00     -1.8379    
-163.00 -65.00     -1.5995    
-163.00 -64.00     -1.3315    
-163.00 -63.00     -1.0710    
-163.00 -62.00    -0.85979    
-163.00 -61.00    -0.73386    
-163.00 -60.00    -0.71537    
-163.00 -59.00    -0.80516    
-163.00 -58.00    -0.98318    
-163.00 -57.00     -1.2126    
-163.00 -56.00     -1.4493    
-163.00 -55.00     -1.6515    
-163.00 -54.00     -1.7899    
-163.00 -53.00     -1.8510    
-163.00 -52.00     -1.8381    
-163.00 -51.00     -1.7669    
-163.00 -50.00     -1.6572    
-163.00 -49.00     -1.5271    
-163.00 -48.00     -1.3890    
-163.00 -47.00     -1.2465    
-163.00 -46.00     -1.0989    
-163.00 -45.00    -0.94492    
-163.00 -44.00    -0.78732    
-163.00 -43.00    -0.63536    
-163.00 -42.00    -0.50360    
-163.00 -41.00    -0.40801    
-163.00 -40.00    -0.36058    
-163.00 -39.00    -0.36372    
-163.00 -38.00    -0.40828    
-163.00 -37.00    -0.47483    
-163.00 -36.00    -0.53889    
-163.00 -35.00    -0.57831    
-163.00 -34.00    -0.58049    
-163.00 -33.00    -0.54697    
-163.00 -32.00    -0.49365    
-163.00 -31.00    -0.44641    
-163.00 -30.00    -0.43345    
-163.00 -29.00    -0.47660    
-163.00 -28.00    -0.58456    
-163.00 -27.00    -0.74996    
-163.00 -26.00    -0.95145    
-163.00 -25.00     -1.1599    
-163.00 -24.00     -1.3467    
-163.00 -23.00     -1.4917    
-163.00 -22.00     -1.5879    
-163.00 -21.00     -1.6418    
-163.00 -20.00     -1.6698    
-163.00 -19.00     -1.6909    
-163.00 -18.00     -1.7200    
-163.00 -17.00     -1.7625    
-163.00 -16.00     -1.8127    
-163.00 -15.00     -1.8565    
-163.00 -14.00     -1.8770    
-163.00 -13.00     -1.8612    
-163.00 -12.00     -1.8053    
-163.00 -11.00     -1.7170    
-163.00 -10.00     -1.6141    
-163.00  -9.00     -1.5197    
-163.00  -8.00     -1.4559    
-163.00  -7.00     -1.4380    
-163.00  -6.00     -1.4703    
-163.00  -5.00     -1.5466    
-163.00  -4.00     -1.6519    
-163.00  -3.00     -1.7675    
-163.00  -2.00     -1.8755    
-163.00  -1.00     -1.9625    
-163.00   0.00     -2.0207    
-163.00   1.00     -2.0471    
-163.00   2.00     -2.0417    
-163.00   3.00     -2.0046    
-163.00   4.00     -1.9357    
-163.00   5.00     -1.8348    
-163.00   6.00     -1.7043    
-163.00   7.00     -1.5513    
-163.00   8.00     -1.3898    
-163.00   9.00     -1.2395    
-163.00  10.00     -1.1230    
-163.00  11.00     -1.0604    
-163.00  12.00     -1.0636    
-163.00  13.00     -1.1317    
-163.00  14.00     -1.2488    
-163.00  15.00     -1.3871    
-163.00  16.00     -1.5117    
-163.00  17.00     -1.5898    
-163.00  18.00     -1.5979    
-163.00  19.00     -1.5287    
-163.00  20.00     -1.3928    
-163.00  21.00     -1.2159    
-163.00  22.00     -1.0329    
-163.00  23.00    -0.87880    
-163.00  24.00    -0.78061    
-163.00  25.00    -0.75133    
-163.00  26.00    -0.78805    
-163.00  27.00    -0.87413    
-163.00  28.00    -0.98488    
-163.00  29.00     -1.0946    
-163.00  30.00     -1.1832    
-163.00  31.00     -1.2405    
-163.00  32.00     -1.2671    
-163.00  33.00     -1.2721    
-163.00  34.00     -1.2687    
-163.00  35.00     -1.2690    
-163.00  36.00     -1.2795    
-163.00  37.00     -1.2992    
-163.00  38.00     -1.3199    
-163.00  39.00     -1.3290    
-163.00  40.00     -1.3136    
-163.00  41.00     -1.2650    
-163.00  42.00     -1.1818    
-163.00  43.00     -1.0706    
-163.00  44.00    -0.94579    
-163.00  45.00    -0.82538    
-163.00  46.00    -0.72715    
-163.00  47.00    -0.66382    
-163.00  48.00    -0.63919    
-163.00  49.00    -0.64678    
-163.00  50.00    -0.67015    
-163.00  51.00    -0.68603    
-163.00  52.00    -0.66947    
-163.00  53.00    -0.59981    
-163.00  54.00    -0.46644    
-163.00  55.00    -0.27291    
-163.00  56.00    -0.38178E-01
-163.00  57.00     0.20589    
-163.00  58.00     0.41984    
-163.00  59.00     0.56488    
-163.00  60.00     0.61052    
-163.00  61.00     0.54302    
-163.00  62.00     0.36879    
-163.00  63.00     0.11382    
-163.00  64.00    -0.18059    
-163.00  65.00    -0.46694    
-163.00  66.00    -0.70187    
-163.00  67.00    -0.85555    
-163.00  68.00    -0.91772    
-163.00  69.00    -0.89959    
-163.00  70.00    -0.82964    
-163.00  71.00    -0.74568    
-163.00  72.00    -0.68422    
-163.00  73.00    -0.67428    
-163.00  74.00    -0.72509    
-163.00  75.00    -0.83209    
-163.00  76.00    -0.97229    
-163.00  77.00     -1.1177    
-163.00  78.00     -1.2418    
-163.00  79.00     -1.3290    
-163.00  80.00     -1.3726    
-163.00  81.00     -1.3841    
-163.00  82.00     -1.3810    
-163.00  83.00     -1.3856    
-163.00  84.00     -1.4124    
-163.00  85.00     -1.4670    
-163.00  86.00     -1.5429    
-163.00  87.00     -1.6217    
-163.00  88.00     -1.6832    
-163.00  89.00     -1.7053    
-162.00 -89.00     0.57791    
-162.00 -88.00     0.47242    
-162.00 -87.00     0.35322    
-162.00 -86.00     0.23811    
-162.00 -85.00     0.13205    
-162.00 -84.00     0.30081E-01
-162.00 -83.00    -0.75046E-01
-162.00 -82.00    -0.20114    
-162.00 -81.00    -0.36116    
-162.00 -80.00    -0.55869    
-162.00 -79.00    -0.78802    
-162.00 -78.00     -1.0352    
-162.00 -77.00     -1.2825    
-162.00 -76.00     -1.5115    
-162.00 -75.00     -1.7077    
-162.00 -74.00     -1.8670    
-162.00 -73.00     -1.9901    
-162.00 -72.00     -2.0814    
-162.00 -71.00     -2.1434    
-162.00 -70.00     -2.1742    
-162.00 -69.00     -2.1646    
-162.00 -68.00     -2.1035    
-162.00 -67.00     -1.9812    
-162.00 -66.00     -1.7961    
-162.00 -65.00     -1.5591    
-162.00 -64.00     -1.2962    
-162.00 -63.00     -1.0434    
-162.00 -62.00    -0.84095    
-162.00 -61.00    -0.72282    
-162.00 -60.00    -0.70958    
-162.00 -59.00    -0.80085    
-162.00 -58.00    -0.97634    
-162.00 -57.00     -1.1998    
-162.00 -56.00     -1.4283    
-162.00 -55.00     -1.6223    
-162.00 -54.00     -1.7544    
-162.00 -53.00     -1.8137    
-162.00 -52.00     -1.8058    
-162.00 -51.00     -1.7478    
-162.00 -50.00     -1.6603    
-162.00 -49.00     -1.5604    
-162.00 -48.00     -1.4580    
-162.00 -47.00     -1.3532    
-162.00 -46.00     -1.2399    
-162.00 -45.00     -1.1117    
-162.00 -44.00    -0.96667    
-162.00 -43.00    -0.81083    
-162.00 -42.00    -0.65798    
-162.00 -41.00    -0.52600    
-162.00 -40.00    -0.43110    
-162.00 -39.00    -0.38157    
-162.00 -38.00    -0.37464    
-162.00 -37.00    -0.39651    
-162.00 -36.00    -0.42660    
-162.00 -35.00    -0.44442    
-162.00 -34.00    -0.43690    
-162.00 -33.00    -0.40348    
-162.00 -32.00    -0.35722    
-162.00 -31.00    -0.32136    
-162.00 -30.00    -0.32225    
-162.00 -29.00    -0.38093    
-162.00 -28.00    -0.50601    
-162.00 -27.00    -0.69029    
-162.00 -26.00    -0.91219    
-162.00 -25.00     -1.1415    
-162.00 -24.00     -1.3479    
-162.00 -23.00     -1.5089    
-162.00 -22.00     -1.6154    
-162.00 -21.00     -1.6733    
-162.00 -20.00     -1.6992    
-162.00 -19.00     -1.7146    
-162.00 -18.00     -1.7374    
-162.00 -17.00     -1.7763    
-162.00 -16.00     -1.8280    
-162.00 -15.00     -1.8790    
-162.00 -14.00     -1.9107    
-162.00 -13.00     -1.9066    
-162.00 -12.00     -1.8582    
-162.00 -11.00     -1.7692    
-162.00 -10.00     -1.6546    
-162.00  -9.00     -1.5376    
-162.00  -8.00     -1.4429    
-162.00  -7.00     -1.3907    
-162.00  -6.00     -1.3919    
-162.00  -5.00     -1.4460    
-162.00  -4.00     -1.5427    
-162.00  -3.00     -1.6653    
-162.00  -2.00     -1.7955    
-162.00  -1.00     -1.9168    
-162.00   0.00     -2.0170    
-162.00   1.00     -2.0880    
-162.00   2.00     -2.1248    
-162.00   3.00     -2.1233    
-162.00   4.00     -2.0803    
-162.00   5.00     -1.9932    
-162.00   6.00     -1.8625    
-162.00   7.00     -1.6944    
-162.00   8.00     -1.5025    
-162.00   9.00     -1.3078    
-162.00  10.00     -1.1358    
-162.00  11.00     -1.0119    
-162.00  12.00    -0.95537    
-162.00  13.00    -0.97325    
-162.00  14.00     -1.0579    
-162.00  15.00     -1.1873    
-162.00  16.00     -1.3292    
-162.00  17.00     -1.4487    
-162.00  18.00     -1.5160    
-162.00  19.00     -1.5137    
-162.00  20.00     -1.4409    
-162.00  21.00     -1.3127    
-162.00  22.00     -1.1560    
-162.00  23.00     -1.0026    
-162.00  24.00    -0.88166    
-162.00  25.00    -0.81255    
-162.00  26.00    -0.80186    
-162.00  27.00    -0.84332    
-162.00  28.00    -0.92121    
-162.00  29.00     -1.0158    
-162.00  30.00     -1.1090    
-162.00  31.00     -1.1888    
-162.00  32.00     -1.2508    
-162.00  33.00     -1.2976    
-162.00  34.00     -1.3358    
-162.00  35.00     -1.3715    
-162.00  36.00     -1.4074    
-162.00  37.00     -1.4404    
-162.00  38.00     -1.4621    
-162.00  39.00     -1.4615    
-162.00  40.00     -1.4280    
-162.00  41.00     -1.3562    
-162.00  42.00     -1.2481    
-162.00  43.00     -1.1143    
-162.00  44.00    -0.97271    
-162.00  45.00    -0.84447    
-162.00  46.00    -0.74956    
-162.00  47.00    -0.70133    
-162.00  48.00    -0.70244    
-162.00  49.00    -0.74354    
-162.00  50.00    -0.80371    
-162.00  51.00    -0.85456    
-162.00  52.00    -0.86614    
-162.00  53.00    -0.81389    
-162.00  54.00    -0.68488    
-162.00  55.00    -0.48264    
-162.00  56.00    -0.22773    
-162.00  57.00     0.44976E-01
-162.00  58.00     0.29260    
-162.00  59.00     0.47282    
-162.00  60.00     0.55256    
-162.00  61.00     0.51600    
-162.00  62.00     0.36821    
-162.00  63.00     0.13392    
-162.00  64.00    -0.14677    
-162.00  65.00    -0.42783    
-162.00  66.00    -0.66716    
-162.00  67.00    -0.83586    
-162.00  68.00    -0.92331    
-162.00  69.00    -0.93882    
-162.00  70.00    -0.90736    
-162.00  71.00    -0.86143    
-162.00  72.00    -0.83242    
-162.00  73.00    -0.84383    
-162.00  74.00    -0.90162    
-162.00  75.00     -1.0000    
-162.00  76.00     -1.1178    
-162.00  77.00     -1.2306    
-162.00  78.00     -1.3176    
-162.00  79.00     -1.3686    
-162.00  80.00     -1.3822    
-162.00  81.00     -1.3724    
-162.00  82.00     -1.3577    
-162.00  83.00     -1.3595    
-162.00  84.00     -1.3894    
-162.00  85.00     -1.4493    
-162.00  86.00     -1.5314    
-162.00  87.00     -1.6151    
-162.00  88.00     -1.6800    
-162.00  89.00     -1.7040    
-161.00 -89.00     0.57638    
-161.00 -88.00     0.46825    
-161.00 -87.00     0.34587    
-161.00 -86.00     0.22850    
-161.00 -85.00     0.12264    
-161.00 -84.00     0.25168E-01
-161.00 -83.00    -0.70697E-01
-161.00 -82.00    -0.18176    
-161.00 -81.00    -0.32373    
-161.00 -80.00    -0.50293    
-161.00 -79.00    -0.71616    
-161.00 -78.00    -0.95259    
-161.00 -77.00     -1.1959    
-161.00 -76.00     -1.4279    
-161.00 -75.00     -1.6326    
-161.00 -74.00     -1.8031    
-161.00 -73.00     -1.9372    
-161.00 -72.00     -2.0365    
-161.00 -71.00     -2.1021    
-161.00 -70.00     -2.1321    
-161.00 -69.00     -2.1184    
-161.00 -68.00     -2.0523    
-161.00 -67.00     -1.9269    
-161.00 -66.00     -1.7423    
-161.00 -65.00     -1.5108    
-161.00 -64.00     -1.2577    
-161.00 -63.00     -1.0179    
-161.00 -62.00    -0.82933    
-161.00 -61.00    -0.72354    
-161.00 -60.00    -0.71914    
-161.00 -59.00    -0.81436    
-161.00 -58.00    -0.98860    
-161.00 -57.00     -1.2061    
-161.00 -56.00     -1.4255    
-161.00 -55.00     -1.6091    
-161.00 -54.00     -1.7320    
-161.00 -53.00     -1.7856    
-161.00 -52.00     -1.7777    
-161.00 -51.00     -1.7273    
-161.00 -50.00     -1.6558    
-161.00 -49.00     -1.5800    
-161.00 -48.00     -1.5079    
-161.00 -47.00     -1.4365    
-161.00 -46.00     -1.3551    
-161.00 -45.00     -1.2523    
-161.00 -44.00     -1.1216    
-161.00 -43.00    -0.96541    
-161.00 -42.00    -0.79632    
-161.00 -41.00    -0.63348    
-161.00 -40.00    -0.49681    
-161.00 -39.00    -0.40038    
-161.00 -38.00    -0.34803    
-161.00 -37.00    -0.33227    
-161.00 -36.00    -0.33738    
-161.00 -35.00    -0.34555    
-161.00 -34.00    -0.34388    
-161.00 -33.00    -0.32982    
-161.00 -32.00    -0.31302    
-161.00 -31.00    -0.31274    
-161.00 -30.00    -0.35162    
-161.00 -29.00    -0.44773    
-161.00 -28.00    -0.60763    
-161.00 -27.00    -0.82284    
-161.00 -26.00     -1.0708    
-161.00 -25.00     -1.3205    
-161.00 -24.00     -1.5406    
-161.00 -23.00     -1.7079    
-161.00 -22.00     -1.8131    
-161.00 -21.00     -1.8623    
-161.00 -20.00     -1.8742    
-161.00 -19.00     -1.8728    
-161.00 -18.00     -1.8794    
-161.00 -17.00     -1.9056    
-161.00 -16.00     -1.9501    
-161.00 -15.00     -1.9994    
-161.00 -14.00     -2.0330    
-161.00 -13.00     -2.0307    
-161.00 -12.00     -1.9795    
-161.00 -11.00     -1.8789    
-161.00 -10.00     -1.7415    
-161.00  -9.00     -1.5903    
-161.00  -8.00     -1.4526    
-161.00  -7.00     -1.3537    
-161.00  -6.00     -1.3107    
-161.00  -5.00     -1.3294    
-161.00  -4.00     -1.4048    
-161.00  -3.00     -1.5230    
-161.00  -2.00     -1.6661    
-161.00  -1.00     -1.8153    
-161.00   0.00     -1.9546    
-161.00   1.00     -2.0707    
-161.00   2.00     -2.1531    
-161.00   3.00     -2.1931    
-161.00   4.00     -2.1827    
-161.00   5.00     -2.1161    
-161.00   6.00     -1.9911    
-161.00   7.00     -1.8127    
-161.00   8.00     -1.5944    
-161.00   9.00     -1.3594    
-161.00  10.00     -1.1375    
-161.00  11.00    -0.96044    
-161.00  12.00    -0.85541    
-161.00  13.00    -0.83812    
-161.00  14.00    -0.90834    
-161.00  15.00     -1.0488    
-161.00  16.00     -1.2279    
-161.00  17.00     -1.4068    
-161.00  18.00     -1.5473    
-161.00  19.00     -1.6207    
-161.00  20.00     -1.6138    
-161.00  21.00     -1.5312    
-161.00  22.00     -1.3929    
-161.00  23.00     -1.2293    
-161.00  24.00     -1.0729    
-161.00  25.00    -0.95141    
-161.00  26.00    -0.88220    
-161.00  27.00    -0.86991    
-161.00  28.00    -0.90771    
-161.00  29.00    -0.98115    
-161.00  30.00     -1.0731    
-161.00  31.00     -1.1687    
-161.00  32.00     -1.2577    
-161.00  33.00     -1.3361    
-161.00  34.00     -1.4038    
-161.00  35.00     -1.4622    
-161.00  36.00     -1.5113    
-161.00  37.00     -1.5475    
-161.00  38.00     -1.5636    
-161.00  39.00     -1.5507    
-161.00  40.00     -1.5009    
-161.00  41.00     -1.4113    
-161.00  42.00     -1.2863    
-161.00  43.00     -1.1389    
-161.00  44.00    -0.98874    
-161.00  45.00    -0.85896    
-161.00  46.00    -0.77092    
-161.00  47.00    -0.73842    
-161.00  48.00    -0.76362    
-161.00  49.00    -0.83526    
-161.00  50.00    -0.92920    
-161.00  51.00     -1.0131    
-161.00  52.00     -1.0528    
-161.00  53.00     -1.0202    
-161.00  54.00    -0.89976    
-161.00  55.00    -0.69421    
-161.00  56.00    -0.42466    
-161.00  57.00    -0.12790    
-161.00  58.00     0.15062    
-161.00  59.00     0.36557    
-161.00  60.00     0.48126    
-161.00  61.00     0.47941    
-161.00  62.00     0.36288    
-161.00  63.00     0.15428    
-161.00  64.00    -0.10837    
-161.00  65.00    -0.38110    
-161.00  66.00    -0.62342    
-161.00  67.00    -0.80729    
-161.00  68.00    -0.92136    
-161.00  69.00    -0.97255    
-161.00  70.00    -0.98176    
-161.00  71.00    -0.97565    
-161.00  72.00    -0.98031    
-161.00  73.00     -1.0135    
-161.00  74.00     -1.0782    
-161.00  75.00     -1.1673    
-161.00  76.00     -1.2621    
-161.00  77.00     -1.3417    
-161.00  78.00     -1.3911    
-161.00  79.00     -1.4061    
-161.00  80.00     -1.3898    
-161.00  81.00     -1.3591    
-161.00  82.00     -1.3332    
-161.00  83.00     -1.3326    
-161.00  84.00     -1.3660    
-161.00  85.00     -1.4315    
-161.00  86.00     -1.5199    
-161.00  87.00     -1.6086    
-161.00  88.00     -1.6768    
-161.00  89.00     -1.7026    
-160.00 -89.00     0.57488    
-160.00 -88.00     0.46412    
-160.00 -87.00     0.33850    
-160.00 -86.00     0.21868    
-160.00 -85.00     0.11268    
-160.00 -84.00     0.19291E-01
-160.00 -83.00    -0.67893E-01
-160.00 -82.00    -0.16457    
-160.00 -81.00    -0.28904    
-160.00 -80.00    -0.45023    
-160.00 -79.00    -0.64739    
-160.00 -78.00    -0.87265    
-160.00 -77.00     -1.1110    
-160.00 -76.00     -1.3445    
-160.00 -75.00     -1.5557    
-160.00 -74.00     -1.7350    
-160.00 -73.00     -1.8773    
-160.00 -72.00     -1.9820    
-160.00 -71.00     -2.0488    
-160.00 -70.00     -2.0761    
-160.00 -69.00     -2.0575    
-160.00 -68.00     -1.9869    
-160.00 -67.00     -1.8599    
-160.00 -66.00     -1.6787    
-160.00 -65.00     -1.4563    
-160.00 -64.00     -1.2174    
-160.00 -63.00    -0.99505    
-160.00 -62.00    -0.82440    
-160.00 -61.00    -0.73442    
-160.00 -60.00    -0.74140    
-160.00 -59.00    -0.84216    
-160.00 -58.00     -1.0158    
-160.00 -57.00     -1.2273    
-160.00 -56.00     -1.4369    
-160.00 -55.00     -1.6086    
-160.00 -54.00     -1.7203    
-160.00 -53.00     -1.7651    
-160.00 -52.00     -1.7534    
-160.00 -51.00     -1.7054    
-160.00 -50.00     -1.6436    
-160.00 -49.00     -1.5850    
-160.00 -48.00     -1.5362    
-160.00 -47.00     -1.4916    
-160.00 -46.00     -1.4370    
-160.00 -45.00     -1.3566    
-160.00 -44.00     -1.2397    
-160.00 -43.00     -1.0853    
-160.00 -42.00    -0.90439    
-160.00 -41.00    -0.71700    
-160.00 -40.00    -0.54621    
-160.00 -39.00    -0.41150    
-160.00 -38.00    -0.32316    
-160.00 -37.00    -0.28013    
-160.00 -36.00    -0.27187    
-160.00 -35.00    -0.28355    
-160.00 -34.00    -0.30256    
-160.00 -33.00    -0.32412    
-160.00 -32.00    -0.35370    
-160.00 -31.00    -0.40537    
-160.00 -30.00    -0.49655    
-160.00 -29.00    -0.64088    
-160.00 -28.00    -0.84169    
-160.00 -27.00     -1.0886    
-160.00 -26.00     -1.3582    
-160.00 -25.00     -1.6195    
-160.00 -24.00     -1.8415    
-160.00 -23.00     -2.0016    
-160.00 -22.00     -2.0918    
-160.00 -21.00     -2.1200    
-160.00 -20.00     -2.1069    
-160.00 -19.00     -2.0793    
-160.00 -18.00     -2.0616    
-160.00 -17.00     -2.0680    
-160.00 -16.00     -2.0988    
-160.00 -15.00     -2.1404    
-160.00 -14.00     -2.1706    
-160.00 -13.00     -2.1659    
-160.00 -12.00     -2.1094    
-160.00 -11.00     -1.9965    
-160.00 -10.00     -1.8372    
-160.00  -9.00     -1.6537    
-160.00  -8.00     -1.4749    
-160.00  -7.00     -1.3299    
-160.00  -6.00     -1.2410    
-160.00  -5.00     -1.2197    
-160.00  -4.00     -1.2659    
-160.00  -3.00     -1.3693    
-160.00  -2.00     -1.5132    
-160.00  -1.00     -1.6781    
-160.00   0.00     -1.8451    
-160.00   1.00     -1.9972    
-160.00   2.00     -2.1193    
-160.00   3.00     -2.1977    
-160.00   4.00     -2.2201    
-160.00   5.00     -2.1766    
-160.00   6.00     -2.0622    
-160.00   7.00     -1.8802    
-160.00   8.00     -1.6445    
-160.00   9.00     -1.3801    
-160.00  10.00     -1.1217    
-160.00  11.00    -0.90729    
-160.00  12.00    -0.77187    
-160.00  13.00    -0.73888    
-160.00  14.00    -0.81432    
-160.00  15.00    -0.98401    
-160.00  16.00     -1.2155    
-160.00  17.00     -1.4643    
-160.00  18.00     -1.6830    
-160.00  19.00     -1.8315    
-160.00  20.00     -1.8850    
-160.00  21.00     -1.8386    
-160.00  22.00     -1.7075    
-160.00  23.00     -1.5220    
-160.00  24.00     -1.3203    
-160.00  25.00     -1.1391    
-160.00  26.00     -1.0067    
-160.00  27.00    -0.93826    
-160.00  28.00    -0.93471    
-160.00  29.00    -0.98534    
-160.00  30.00     -1.0726    
-160.00  31.00     -1.1774    
-160.00  32.00     -1.2835    
-160.00  33.00     -1.3803    
-160.00  34.00     -1.4623    
-160.00  35.00     -1.5276    
-160.00  36.00     -1.5756    
-160.00  37.00     -1.6038    
-160.00  38.00     -1.6077    
-160.00  39.00     -1.5812    
-160.00  40.00     -1.5188    
-160.00  41.00     -1.4193    
-160.00  42.00     -1.2877    
-160.00  43.00     -1.1373    
-160.00  44.00    -0.98803    
-160.00  45.00    -0.86338    
-160.00  46.00    -0.78529    
-160.00  47.00    -0.76805    
-160.00  48.00    -0.81401    
-160.00  49.00    -0.91121    
-160.00  50.00     -1.0339    
-160.00  51.00     -1.1470    
-160.00  52.00     -1.2134    
-160.00  53.00     -1.2017    
-160.00  54.00     -1.0937    
-160.00  55.00    -0.89068    
-160.00  56.00    -0.61310    
-160.00  57.00    -0.29852    
-160.00  58.00     0.60912E-02
-160.00  59.00     0.25302    
-160.00  60.00     0.40423    
-160.00  61.00     0.43867    
-160.00  62.00     0.35641    
-160.00  63.00     0.17712    
-160.00  64.00    -0.64090E-01
-160.00  65.00    -0.32594    
-160.00  66.00    -0.56992    
-160.00  67.00    -0.76884    
-160.00  68.00    -0.91044    
-160.00  69.00    -0.99881    
-160.00  70.00     -1.0504    
-160.00  71.00     -1.0856    
-160.00  72.00     -1.1249    
-160.00  73.00     -1.1804    
-160.00  74.00     -1.2519    
-160.00  75.00     -1.3317    
-160.00  76.00     -1.4031    
-160.00  77.00     -1.4494    
-160.00  78.00     -1.4615    
-160.00  79.00     -1.4407    
-160.00  80.00     -1.3951    
-160.00  81.00     -1.3441    
-160.00  82.00     -1.3077    
-160.00  83.00     -1.3051    
-160.00  84.00     -1.3421    
-160.00  85.00     -1.4135    
-160.00  86.00     -1.5083    
-160.00  87.00     -1.6020    
-160.00  88.00     -1.6735    
-160.00  89.00     -1.7013    
-159.00 -89.00     0.57341    
-159.00 -88.00     0.46002    
-159.00 -87.00     0.33110    
-159.00 -86.00     0.20862    
-159.00 -85.00     0.10215    
-159.00 -84.00     0.12404E-01
-159.00 -83.00    -0.66703E-01
-159.00 -82.00    -0.14974    
-159.00 -81.00    -0.25733    
-159.00 -80.00    -0.40095    
-159.00 -79.00    -0.58214    
-159.00 -78.00    -0.79589    
-159.00 -77.00     -1.0285    
-159.00 -76.00     -1.2620    
-159.00 -75.00     -1.4777    
-159.00 -74.00     -1.6634    
-159.00 -73.00     -1.8115    
-159.00 -72.00     -1.9191    
-159.00 -71.00     -1.9849    
-159.00 -70.00     -2.0081    
-159.00 -69.00     -1.9842    
-159.00 -68.00     -1.9096    
-159.00 -67.00     -1.7828    
-159.00 -66.00     -1.6077    
-159.00 -65.00     -1.3979    
-159.00 -64.00     -1.1769    
-159.00 -63.00    -0.97548    
-159.00 -62.00    -0.82580    
-159.00 -61.00    -0.75384    
-159.00 -60.00    -0.77348    
-159.00 -59.00    -0.88024    
-159.00 -58.00     -1.0532    
-159.00 -57.00     -1.2582    
-159.00 -56.00     -1.4571    
-159.00 -55.00     -1.6164    
-159.00 -54.00     -1.7155    
-159.00 -53.00     -1.7500    
-159.00 -52.00     -1.7317    
-159.00 -51.00     -1.6820    
-159.00 -50.00     -1.6244    
-159.00 -49.00     -1.5762    
-159.00 -48.00     -1.5428    
-159.00 -47.00     -1.5173    
-159.00 -46.00     -1.4830    
-159.00 -45.00     -1.4203    
-159.00 -44.00     -1.3150    
-159.00 -43.00     -1.1633    
-159.00 -42.00    -0.97467    
-159.00 -41.00    -0.76945    
-159.00 -40.00    -0.57338    
-159.00 -39.00    -0.41067    
-159.00 -38.00    -0.29747    
-159.00 -37.00    -0.23870    
-159.00 -36.00    -0.22868    
-159.00 -35.00    -0.25524    
-159.00 -34.00    -0.30578    
-159.00 -33.00    -0.37272    
-159.00 -32.00    -0.45663    
-159.00 -31.00    -0.56550    
-159.00 -30.00    -0.71065    
-159.00 -29.00    -0.90061    
-159.00 -28.00     -1.1353    
-159.00 -27.00     -1.4027    
-159.00 -26.00     -1.6797    
-159.00 -25.00     -1.9365    
-159.00 -24.00     -2.1441    
-159.00 -23.00     -2.2824    
-159.00 -22.00     -2.3454    
-159.00 -21.00     -2.3430    
-159.00 -20.00     -2.2983    
-159.00 -19.00     -2.2402    
-159.00 -18.00     -2.1951    
-159.00 -17.00     -2.1793    
-159.00 -16.00     -2.1941    
-159.00 -15.00     -2.2264    
-159.00 -14.00     -2.2529    
-159.00 -13.00     -2.2478    
-159.00 -12.00     -2.1910    
-159.00 -11.00     -2.0745    
-159.00 -10.00     -1.9053    
-159.00  -9.00     -1.7038    
-159.00  -8.00     -1.4990    
-159.00  -7.00     -1.3215    
-159.00  -6.00     -1.1967    
-159.00  -5.00     -1.1402    
-159.00  -4.00     -1.1560    
-159.00  -3.00     -1.2373    
-159.00  -2.00     -1.3696    
-159.00  -1.00     -1.5344    
-159.00   0.00     -1.7122    
-159.00   1.00     -1.8840    
-159.00   2.00     -2.0318    
-159.00   3.00     -2.1382    
-159.00   4.00     -2.1872    
-159.00   5.00     -2.1652    
