  83.00  55.00    -0.31382E-01
  83.00  56.00    -0.92368E-02
  83.00  57.00     0.35895E-01
  83.00  58.00     0.10315    
  83.00  59.00     0.18433    
  83.00  60.00     0.26535    
  83.00  61.00     0.32965    
  83.00  62.00     0.36169    
  83.00  63.00     0.35125    
  83.00  64.00     0.29573    
  83.00  65.00     0.20098    
  83.00  66.00     0.80063E-01
  83.00  67.00    -0.49921E-01
  83.00  68.00    -0.17207    
  83.00  69.00    -0.27263    
  83.00  70.00    -0.34407    
  83.00  71.00    -0.38543    
  83.00  72.00    -0.40181    
  83.00  73.00    -0.40146    
  83.00  74.00    -0.39409    
  83.00  75.00    -0.38784    
  83.00  76.00    -0.38699    
  83.00  77.00    -0.39444    
  83.00  78.00    -0.40857    
  83.00  79.00    -0.42624    
  83.00  80.00    -0.44443    
  83.00  81.00    -0.45919    
  83.00  82.00    -0.46621    
  83.00  83.00    -0.46403    
  83.00  84.00    -0.45075    
  83.00  85.00    -0.42820    
  83.00  86.00    -0.39459    
  83.00  87.00    -0.35470    
  83.00  88.00    -0.31108    
  83.00  89.00    -0.26866    
  84.00 -89.00    -0.32331    
  84.00 -88.00    -0.33171    
  84.00 -87.00    -0.35087    
  84.00 -86.00    -0.36693    
  84.00 -85.00    -0.36562    
  84.00 -84.00    -0.33719    
  84.00 -83.00    -0.27811    
  84.00 -82.00    -0.19561    
  84.00 -81.00    -0.10421    
  84.00 -80.00    -0.24846E-01
  84.00 -79.00     0.23596E-01
  84.00 -78.00     0.27939E-01
  84.00 -77.00    -0.12924E-01
  84.00 -76.00    -0.87196E-01
  84.00 -75.00    -0.17123    
  84.00 -74.00    -0.23559    
  84.00 -73.00    -0.25267    
  84.00 -72.00    -0.20235    
  84.00 -71.00    -0.79804E-01
  84.00 -70.00     0.10089    
  84.00 -69.00     0.31055    
  84.00 -68.00     0.50857    
  84.00 -67.00     0.65330    
  84.00 -66.00     0.71059    
  84.00 -65.00     0.66259    
  84.00 -64.00     0.51287    
  84.00 -63.00     0.28526    
  84.00 -62.00     0.19236E-01
  84.00 -61.00    -0.23922    
  84.00 -60.00    -0.44789    
  84.00 -59.00    -0.57743    
  84.00 -58.00    -0.61711    
  84.00 -57.00    -0.57578    
  84.00 -56.00    -0.47730    
  84.00 -55.00    -0.35280    
  84.00 -54.00    -0.23179    
  84.00 -53.00    -0.13398    
  84.00 -52.00    -0.65841E-01
  84.00 -51.00    -0.20156E-01
  84.00 -50.00     0.18500E-01
  84.00 -49.00     0.66353E-01
  84.00 -48.00     0.13302    
  84.00 -47.00     0.21619    
  84.00 -46.00     0.30049    
  84.00 -45.00     0.36117    
  84.00 -44.00     0.37166    
  84.00 -43.00     0.31247    
  84.00 -42.00     0.17868    
  84.00 -41.00    -0.16251E-01
  84.00 -40.00    -0.24193    
  84.00 -39.00    -0.45723    
  84.00 -38.00    -0.62026    
  84.00 -37.00    -0.69856    
  84.00 -36.00    -0.67719    
  84.00 -35.00    -0.56216    
  84.00 -34.00    -0.37839    
  84.00 -33.00    -0.16280    
  84.00 -32.00     0.45284E-01
  84.00 -31.00     0.21369    
  84.00 -30.00     0.32423    
  84.00 -29.00     0.37512    
  84.00 -28.00     0.37854    
  84.00 -27.00     0.35466    
  84.00 -26.00     0.32408    
  84.00 -25.00     0.30136    
  84.00 -24.00     0.29131    
  84.00 -23.00     0.28914    
  84.00 -22.00     0.28384    
  84.00 -21.00     0.26342    
  84.00 -20.00     0.21993    
  84.00 -19.00     0.15249    
  84.00 -18.00     0.67549E-01
  84.00 -17.00    -0.23756E-01
  84.00 -16.00    -0.10968    
  84.00 -15.00    -0.18192    
  84.00 -14.00    -0.23794    
  84.00 -13.00    -0.28083    
  84.00 -12.00    -0.31670    
  84.00 -11.00    -0.35078    
  84.00 -10.00    -0.38390    
  84.00  -9.00    -0.41072    
  84.00  -8.00    -0.42076    
  84.00  -7.00    -0.40196    
  84.00  -6.00    -0.34557    
  84.00  -5.00    -0.25068    
  84.00  -4.00    -0.12654    
  84.00  -3.00     0.83863E-02
  84.00  -2.00     0.13070    
  84.00  -1.00     0.21840    
  84.00   0.00     0.25738    
  84.00   1.00     0.24598    
  84.00   2.00     0.19594    
  84.00   3.00     0.12933    
  84.00   4.00     0.72325E-01
  84.00   5.00     0.47806E-01
  84.00   6.00     0.68921E-01
  84.00   7.00     0.13582    
  84.00   8.00     0.23646    
  84.00   9.00     0.35112    
  84.00  10.00     0.45911    
  84.00  11.00     0.54534    
  84.00  12.00     0.60452    
  84.00  13.00     0.64160    
  84.00  14.00     0.66844    
  84.00  15.00     0.69784    
  84.00  16.00     0.73713    
  84.00  17.00     0.78382    
  84.00  18.00     0.82479    
  84.00  19.00     0.83985    
  84.00  20.00     0.80838    
  84.00  21.00     0.71728    
  84.00  22.00     0.56731    
  84.00  23.00     0.37578    
  84.00  24.00     0.17429    
  84.00  25.00     0.18307E-02
  84.00  26.00    -0.10481    
  84.00  27.00    -0.12092    
  84.00  28.00    -0.40977E-01
  84.00  29.00     0.11892    
  84.00  30.00     0.32408    
  84.00  31.00     0.52886    
  84.00  32.00     0.68701    
  84.00  33.00     0.76175    
  84.00  34.00     0.73337    
  84.00  35.00     0.60239    
  84.00  36.00     0.38801    
  84.00  37.00     0.12264    
  84.00  38.00    -0.15569    
  84.00  39.00    -0.41103    
  84.00  40.00    -0.61552    
  84.00  41.00    -0.75266    
  84.00  42.00    -0.81763    
  84.00  43.00    -0.81543    
  84.00  44.00    -0.75783    
  84.00  45.00    -0.66000    
  84.00  46.00    -0.53833    
  84.00  47.00    -0.40812    
  84.00  48.00    -0.28306    
  84.00  49.00    -0.17426    
  84.00  50.00    -0.89499E-01
  84.00  51.00    -0.32596E-01
  84.00  52.00    -0.27462E-02
  84.00  53.00     0.58183E-02
  84.00  54.00     0.28317E-02
  84.00  55.00    -0.10080E-03
  84.00  56.00     0.80548E-02
  84.00  57.00     0.34740E-01
  84.00  58.00     0.81472E-01
  84.00  59.00     0.14295    
  84.00  60.00     0.20790    
  84.00  61.00     0.26203    
  84.00  62.00     0.29100    
  84.00  63.00     0.28466    
  84.00  64.00     0.23921    
  84.00  65.00     0.15834    
  84.00  66.00     0.52458E-01
  84.00  67.00    -0.64120E-01
  84.00  68.00    -0.17659    
  84.00  69.00    -0.27251    
  84.00  70.00    -0.34447    
  84.00  71.00    -0.39043    
  84.00  72.00    -0.41397    
  84.00  73.00    -0.42079    
  84.00  74.00    -0.41853    
  84.00  75.00    -0.41373    
  84.00  76.00    -0.40998    
  84.00  77.00    -0.41062    
  84.00  78.00    -0.41533    
  84.00  79.00    -0.42270    
  84.00  80.00    -0.43175    
  84.00  81.00    -0.44003    
  84.00  82.00    -0.44411    
  84.00  83.00    -0.44255    
  84.00  84.00    -0.43274    
  84.00  85.00    -0.41491    
  84.00  86.00    -0.38641    
  84.00  87.00    -0.35067    
  84.00  88.00    -0.30969    
  84.00  89.00    -0.26846    
  85.00 -89.00    -0.32518    
  85.00 -88.00    -0.33377    
  85.00 -87.00    -0.35139    
  85.00 -86.00    -0.36496    
  85.00 -85.00    -0.36130    
  85.00 -84.00    -0.33192    
  85.00 -83.00    -0.27412    
  85.00 -82.00    -0.19609    
  85.00 -81.00    -0.11065    
  85.00 -80.00    -0.37357E-01
  85.00 -79.00     0.73505E-02
  85.00 -78.00     0.12321E-01
  85.00 -77.00    -0.22270E-01
  85.00 -76.00    -0.84442E-01
  85.00 -75.00    -0.15200    
  85.00 -74.00    -0.19835    
  85.00 -73.00    -0.19924    
  85.00 -72.00    -0.13779    
  85.00 -71.00    -0.11357E-01
  85.00 -70.00     0.16558    
  85.00 -69.00     0.36531    
  85.00 -68.00     0.55034    
  85.00 -67.00     0.68296    
  85.00 -66.00     0.73277    
  85.00 -65.00     0.68432    
  85.00 -64.00     0.54206    
  85.00 -63.00     0.32806    
  85.00 -62.00     0.78593E-01
  85.00 -61.00    -0.16470    
  85.00 -60.00    -0.36361    
  85.00 -59.00    -0.49177    
  85.00 -58.00    -0.53941    
  85.00 -57.00    -0.51430    
  85.00 -56.00    -0.43733    
  85.00 -55.00    -0.33580    
  85.00 -54.00    -0.23536    
  85.00 -53.00    -0.15287    
  85.00 -52.00    -0.93539E-01
  85.00 -51.00    -0.50675E-01
  85.00 -50.00    -0.10745E-01
  85.00 -49.00     0.39801E-01
  85.00 -48.00     0.10811    
  85.00 -47.00     0.19013    
  85.00 -46.00     0.27007    
  85.00 -45.00     0.32390    
  85.00 -44.00     0.32673    
  85.00 -43.00     0.26102    
  85.00 -42.00     0.12348    
  85.00 -41.00    -0.71489E-01
  85.00 -40.00    -0.29341    
  85.00 -39.00    -0.50186    
  85.00 -38.00    -0.65595    
  85.00 -37.00    -0.72429    
  85.00 -36.00    -0.69268    
  85.00 -35.00    -0.56756    
  85.00 -34.00    -0.37412    
  85.00 -33.00    -0.14974    
  85.00 -32.00     0.65323E-01
  85.00 -31.00     0.23738    
  85.00 -30.00     0.34632    
  85.00 -29.00     0.38843    
  85.00 -28.00     0.37474    
  85.00 -27.00     0.32557    
  85.00 -26.00     0.26352    
  85.00 -25.00     0.20683    
  85.00 -24.00     0.16528    
  85.00 -23.00     0.13929    
  85.00 -22.00     0.12220    
  85.00 -21.00     0.10443    
  85.00 -20.00     0.77810E-01
  85.00 -19.00     0.38625E-01
  85.00 -18.00    -0.11597E-01
  85.00 -17.00    -0.67503E-01
  85.00 -16.00    -0.12266    
  85.00 -15.00    -0.17231    
  85.00 -14.00    -0.21497    
  85.00 -13.00    -0.25217    
  85.00 -12.00    -0.28645    
  85.00 -11.00    -0.31873    
  85.00 -10.00    -0.34608    
  85.00  -9.00    -0.36121    
  85.00  -8.00    -0.35417    
  85.00  -7.00    -0.31582    
  85.00  -6.00    -0.24197    
  85.00  -5.00    -0.13664    
  85.00  -4.00    -0.12914E-01
  85.00  -3.00     0.10914    
  85.00  -2.00     0.20731    
  85.00  -1.00     0.26345    
  85.00   0.00     0.26906    
  85.00   1.00     0.22850    
  85.00   2.00     0.15848    
  85.00   3.00     0.83856E-01
  85.00   4.00     0.30856E-01
  85.00   5.00     0.19734E-01
  85.00   6.00     0.59182E-01
  85.00   7.00     0.14425    
  85.00   8.00     0.25840    
  85.00   9.00     0.37908    
  85.00  10.00     0.48488    
  85.00  11.00     0.56202    
  85.00  12.00     0.60794    
  85.00  13.00     0.63086    
  85.00  14.00     0.64543    
  85.00  15.00     0.66610    
  85.00  16.00     0.70045    
  85.00  17.00     0.74491    
  85.00  18.00     0.78458    
  85.00  19.00     0.79737    
  85.00  20.00     0.76136    
  85.00  21.00     0.66304    
  85.00  22.00     0.50382    
  85.00  23.00     0.30241    
  85.00  24.00     0.92081E-01
  85.00  25.00    -0.86622E-01
  85.00  26.00    -0.19598    
  85.00  27.00    -0.21103    
  85.00  28.00    -0.12667    
  85.00  29.00     0.40226E-01
  85.00  30.00     0.25419    
  85.00  31.00     0.46913    
  85.00  32.00     0.63871    
  85.00  33.00     0.72648    
  85.00  34.00     0.71315    
  85.00  35.00     0.59944    
  85.00  36.00     0.40424    
  85.00  37.00     0.15899    
  85.00  38.00    -0.99856E-01
  85.00  39.00    -0.33829    
  85.00  40.00    -0.53033    
  85.00  41.00    -0.66082    
  85.00  42.00    -0.72545    
  85.00  43.00    -0.72876    
  85.00  44.00    -0.68105    
  85.00  45.00    -0.59547    
  85.00  46.00    -0.48612    
  85.00  47.00    -0.36638    
  85.00  48.00    -0.24873    
  85.00  49.00    -0.14394    
  85.00  50.00    -0.60568E-01
  85.00  51.00    -0.38872E-02
  85.00  52.00     0.24991E-01
  85.00  53.00     0.29983E-01
  85.00  54.00     0.19470E-01
  85.00  55.00     0.45486E-02
  85.00  56.00    -0.32929E-02
  85.00  57.00     0.47953E-02
  85.00  58.00     0.32490E-01
  85.00  59.00     0.76987E-01
  85.00  60.00     0.12943    
  85.00  61.00     0.17737    
  85.00  62.00     0.20730    
  85.00  63.00     0.20894    
  85.00  64.00     0.17709    
  85.00  65.00     0.11322    
  85.00  66.00     0.25010E-01
  85.00  67.00    -0.76056E-01
  85.00  68.00    -0.17732    
  85.00  69.00    -0.26765    
  85.00  70.00    -0.33973    
  85.00  71.00    -0.39050    
  85.00  72.00    -0.42173    
  85.00  73.00    -0.43655    
  85.00  74.00    -0.44034    
  85.00  75.00    -0.43785    
  85.00  76.00    -0.43197    
  85.00  77.00    -0.42629    
  85.00  78.00    -0.42185    
  85.00  79.00    -0.41899    
  85.00  80.00    -0.41883    
  85.00  81.00    -0.42052    
  85.00  82.00    -0.42156    
  85.00  83.00    -0.42061    
  85.00  84.00    -0.41429    
  85.00  85.00    -0.40121    
  85.00  86.00    -0.37793    
  85.00  87.00    -0.34645    
  85.00  88.00    -0.30821    
  85.00  89.00    -0.26824    
  86.00 -89.00    -0.32705    
  86.00 -88.00    -0.33587    
  86.00 -87.00    -0.35204    
  86.00 -86.00    -0.36328    
  86.00 -85.00    -0.35752    
  86.00 -84.00    -0.32744    
  86.00 -83.00    -0.27114    
  86.00 -82.00    -0.19759    
  86.00 -81.00    -0.11796    
  86.00 -80.00    -0.50312E-01
  86.00 -79.00    -0.86576E-02
  86.00 -78.00    -0.21581E-02
  86.00 -77.00    -0.29424E-01
  86.00 -76.00    -0.78462E-01
  86.00 -75.00    -0.12873    
  86.00 -74.00    -0.15664    
  86.00 -73.00    -0.14150    
  86.00 -72.00    -0.69768E-01
  86.00 -71.00     0.58881E-01
  86.00 -70.00     0.22971    
  86.00 -69.00     0.41663    
  86.00 -68.00     0.58558    
  86.00 -67.00     0.70308    
  86.00 -66.00     0.74292    
  86.00 -65.00     0.69237    
  86.00 -64.00     0.55688    
  86.00 -63.00     0.35683    
  86.00 -62.00     0.12518    
  86.00 -61.00    -0.10104    
  86.00 -60.00    -0.28798    
  86.00 -59.00    -0.41257    
  86.00 -58.00    -0.46639    
  86.00 -57.00    -0.45626    
  86.00 -56.00    -0.40028    
  86.00 -55.00    -0.32197    
  86.00 -54.00    -0.24312    
  86.00 -53.00    -0.17775    
  86.00 -52.00    -0.12976    
  86.00 -51.00    -0.92988E-01
  86.00 -50.00    -0.55673E-01
  86.00 -49.00    -0.66589E-02
  86.00 -48.00     0.59162E-01
  86.00 -47.00     0.13667    
  86.00 -46.00     0.21044    
  86.00 -45.00     0.25804    
  86.00 -44.00     0.25688    
  86.00 -43.00     0.19171    
  86.00 -42.00     0.60608E-01
  86.00 -41.00    -0.12193    
  86.00 -40.00    -0.32675    
  86.00 -39.00    -0.51593    
  86.00 -38.00    -0.65150    
  86.00 -37.00    -0.70472    
  86.00 -36.00    -0.66324    
  86.00 -35.00    -0.53415    
  86.00 -34.00    -0.34230    
  86.00 -33.00    -0.12410    
  86.00 -32.00     0.81227E-01
  86.00 -31.00     0.24054    
  86.00 -30.00     0.33365    
  86.00 -29.00     0.35625    
  86.00 -28.00     0.31873    
  86.00 -27.00     0.24141    
  86.00 -26.00     0.14804    
  86.00 -25.00     0.59479E-01
  86.00 -24.00    -0.10694E-01
  86.00 -23.00    -0.57645E-01
  86.00 -22.00    -0.84042E-01
  86.00 -21.00    -0.96915E-01
  86.00 -20.00    -0.10407    
  86.00 -19.00    -0.11135    
  86.00 -18.00    -0.12145    
  86.00 -17.00    -0.13448    
  86.00 -16.00    -0.14947    
  86.00 -15.00    -0.16589    
  86.00 -14.00    -0.18436    
  86.00 -13.00    -0.20609    
  86.00 -12.00    -0.23132    
  86.00 -11.00    -0.25748    
  86.00 -10.00    -0.27827    
  86.00  -9.00    -0.28423    
  86.00  -8.00    -0.26511    
  86.00  -7.00    -0.21355    
  86.00  -6.00    -0.12856    
  86.00  -5.00    -0.17873E-01
  86.00  -4.00     0.10245    
  86.00  -3.00     0.21109    
  86.00  -2.00     0.28683    
  86.00  -1.00     0.31467    
  86.00   0.00     0.29071    
  86.00   1.00     0.22426    
  86.00   2.00     0.13610    
  86.00   3.00     0.53380E-01
  86.00   4.00     0.23039E-02
  86.00   5.00     0.96343E-03
  86.00   6.00     0.54401E-01
  86.00   7.00     0.15352    
  86.00   8.00     0.27819    
  86.00   9.00     0.40359    
  86.00  10.00     0.50779    
  86.00  11.00     0.57808    
  86.00  12.00     0.61408    
  86.00  13.00     0.62655    
  86.00  14.00     0.63234    
  86.00  15.00     0.64726    
  86.00  16.00     0.67919    
  86.00  17.00     0.72400    
  86.00  18.00     0.76564    
  86.00  19.00     0.78082    
  86.00  20.00     0.74662    
  86.00  21.00     0.64902    
  86.00  22.00     0.48926    
  86.00  23.00     0.28609    
  86.00  24.00     0.72819E-01
  86.00  25.00    -0.11021    
  86.00  26.00    -0.22567    
  86.00  27.00    -0.24905    
  86.00  28.00    -0.17541    
  86.00  29.00    -0.21282E-01
  86.00  30.00     0.17897    
  86.00  31.00     0.38106    
  86.00  32.00     0.54096    
  86.00  33.00     0.62454    
  86.00  34.00     0.61430    
  86.00  35.00     0.51181    
  86.00  36.00     0.33550    
  86.00  37.00     0.11509    
  86.00  38.00    -0.11568    
  86.00  39.00    -0.32606    
  86.00  40.00    -0.49317    
  86.00  41.00    -0.60433    
  86.00  42.00    -0.65657    
  86.00  43.00    -0.65462    
  86.00  44.00    -0.60783    
  86.00  45.00    -0.52771    
  86.00  46.00    -0.42632    
  86.00  47.00    -0.31529    
  86.00  48.00    -0.20582    
  86.00  49.00    -0.10817    
  86.00  50.00    -0.31153E-01
  86.00  51.00     0.19163E-01
  86.00  52.00     0.40589E-01
  86.00  53.00     0.36023E-01
  86.00  54.00     0.13196E-01
  86.00  55.00    -0.16790E-01
  86.00  56.00    -0.41767E-01
  86.00  57.00    -0.51562E-01
  86.00  58.00    -0.40640E-01
  86.00  59.00    -0.97694E-02
  86.00  60.00     0.34132E-01
  86.00  61.00     0.79958E-01
  86.00  62.00     0.11476    
  86.00  63.00     0.12787    
  86.00  64.00     0.11263    
  86.00  65.00     0.68279E-01
  86.00  66.00    -0.25280E-03
  86.00  67.00    -0.84241E-01
  86.00  68.00    -0.17320    
  86.00  69.00    -0.25728    
  86.00  70.00    -0.32930    
  86.00  71.00    -0.38515    
  86.00  72.00    -0.42462    
  86.00  73.00    -0.44828    
  86.00  74.00    -0.45904    
  86.00  75.00    -0.45976    
  86.00  76.00    -0.45254    
  86.00  77.00    -0.44114    
  86.00  78.00    -0.42787    
  86.00  79.00    -0.41494    
  86.00  80.00    -0.40560    
  86.00  81.00    -0.40064    
  86.00  82.00    -0.39859    
  86.00  83.00    -0.39822    
  86.00  84.00    -0.39544    
  86.00  85.00    -0.38715    
  86.00  86.00    -0.36919    
  86.00  87.00    -0.34207    
  86.00  88.00    -0.30665    
  86.00  89.00    -0.26799    
  87.00 -89.00    -0.32893    
  87.00 -88.00    -0.33800    
  87.00 -87.00    -0.35283    
  87.00 -86.00    -0.36189    
  87.00 -85.00    -0.35427    
  87.00 -84.00    -0.32375    
  87.00 -83.00    -0.26916    
  87.00 -82.00    -0.20006    
  87.00 -81.00    -0.12607    
  87.00 -80.00    -0.63656E-01
  87.00 -79.00    -0.24422E-01
  87.00 -78.00    -0.15589E-01
  87.00 -77.00    -0.34622E-01
  87.00 -76.00    -0.69691E-01
  87.00 -75.00    -0.10207    
  87.00 -74.00    -0.11136    
  87.00 -73.00    -0.80547E-01
  87.00 -72.00     0.46119E-03
  87.00 -71.00     0.12958    
  87.00 -70.00     0.29198    
  87.00 -69.00     0.46325    
  87.00 -68.00     0.61308    
  87.00 -67.00     0.71254    
  87.00 -66.00     0.73985    
  87.00 -65.00     0.68540    
  87.00 -64.00     0.55563    
  87.00 -63.00     0.36943    
  87.00 -62.00     0.15635    
  87.00 -61.00    -0.51381E-01
  87.00 -60.00    -0.22447    
  87.00 -59.00    -0.34346    
  87.00 -58.00    -0.40144    
  87.00 -57.00    -0.40450    
  87.00 -56.00    -0.36808    
  87.00 -55.00    -0.31202    
  87.00 -54.00    -0.25435    
  87.00 -53.00    -0.20644    
  87.00 -52.00    -0.17097    
  87.00 -51.00    -0.14239    
  87.00 -50.00    -0.11072    
  87.00 -49.00    -0.66941E-01
  87.00 -48.00    -0.75571E-02
  87.00 -47.00     0.61951E-01
  87.00 -46.00     0.12737    
  87.00 -45.00     0.16878    
  87.00 -44.00     0.16663    
  87.00 -43.00     0.10821    
  87.00 -42.00    -0.72562E-02
  87.00 -41.00    -0.16608    
  87.00 -40.00    -0.34188    
  87.00 -39.00    -0.50106    
  87.00 -38.00    -0.61040    
  87.00 -37.00    -0.64538    
  87.00 -36.00    -0.59627    
  87.00 -35.00    -0.47083    
  87.00 -34.00    -0.29258    
  87.00 -33.00    -0.95213E-01
  87.00 -32.00     0.85250E-01
  87.00 -31.00     0.21848    
  87.00 -30.00     0.28601    
  87.00 -29.00     0.28401    
  87.00 -28.00     0.22238    
  87.00 -27.00     0.12063    
  87.00 -26.00     0.22131E-02
  87.00 -25.00    -0.11123    
  87.00 -24.00    -0.20397    
  87.00 -23.00    -0.26803    
  87.00 -22.00    -0.30260    
  87.00 -21.00    -0.31192    
  87.00 -20.00    -0.30255    
  87.00 -19.00    -0.28116    
  87.00 -18.00    -0.25342    
  87.00 -17.00    -0.22393    
  87.00 -16.00    -0.19674    
  87.00 -15.00    -0.17579    
  87.00 -14.00    -0.16463    
  87.00 -13.00    -0.16536    
  87.00 -12.00    -0.17708    
  87.00 -11.00    -0.19478    
  87.00 -10.00    -0.20921    
  87.00  -9.00    -0.20855    
  87.00  -8.00    -0.18153    
  87.00  -7.00    -0.12126    
  87.00  -6.00    -0.28633E-01
  87.00  -5.00     0.86188E-01
  87.00  -4.00     0.20492    
  87.00  -3.00     0.30511    
  87.00  -2.00     0.36599    
  87.00  -1.00     0.37451    
  87.00   0.00     0.32986    
  87.00   1.00     0.24473    
  87.00   2.00     0.14274    
  87.00   3.00     0.52615E-01
  87.00   4.00     0.58293E-03
  87.00   5.00     0.33100E-02
  87.00   6.00     0.63469E-01
  87.00   7.00     0.16935    
  87.00   8.00     0.29868    
  87.00   9.00     0.42545    
  87.00  10.00     0.52765    
  87.00  11.00     0.59349    
  87.00  12.00     0.62404    
  87.00  13.00     0.63156    
  87.00  14.00     0.63405    
  87.00  15.00     0.64788    
  87.00  16.00     0.68094    
  87.00  17.00     0.72867    
  87.00  18.00     0.77453    
  87.00  19.00     0.79475    
  87.00  20.00     0.76611    
  87.00  21.00     0.67430    
  87.00  22.00     0.52010    
  87.00  23.00     0.32142    
  87.00  24.00     0.11025    
  87.00  25.00    -0.74756E-01
  87.00  26.00    -0.19797    
  87.00  27.00    -0.23613    
  87.00  28.00    -0.18458    
  87.00  29.00    -0.58795E-01
  87.00  30.00     0.10932    
  87.00  31.00     0.27911    
  87.00  32.00     0.41076    
  87.00  33.00     0.47417    
  87.00  34.00     0.45490    
  87.00  35.00     0.35598    
  87.00  36.00     0.19549    
  87.00  37.00     0.98327E-03
  87.00  38.00    -0.19729    
  87.00  39.00    -0.37267    
  87.00  40.00    -0.50627    
  87.00  41.00    -0.58866    
  87.00  42.00    -0.61885    
  87.00  43.00    -0.60236    
  87.00  44.00    -0.54811    
  87.00  45.00    -0.46648    
  87.00  46.00    -0.36790    
  87.00  47.00    -0.26264    
  87.00  48.00    -0.16079    
  87.00  49.00    -0.71954E-01
  87.00  50.00    -0.48448E-02
  87.00  51.00     0.34318E-01
  87.00  52.00     0.43091E-01
  87.00  53.00     0.24192E-01
  87.00  54.00    -0.14583E-01
  87.00  55.00    -0.61624E-01
  87.00  56.00    -0.10389    
  87.00  57.00    -0.13001    
  87.00  58.00    -0.13296    
  87.00  59.00    -0.11197    
  87.00  60.00    -0.72551E-01
  87.00  61.00    -0.24917E-01
  87.00  62.00     0.18228E-01
  87.00  63.00     0.45679E-01
  87.00  64.00     0.49316E-01
  87.00  65.00     0.26208E-01
  87.00  66.00    -0.21370E-01
  87.00  67.00    -0.87327E-01
  87.00  68.00    -0.16334    
  87.00  69.00    -0.24084    
  87.00  70.00    -0.31277    
  87.00  71.00    -0.37404    
  87.00  72.00    -0.42230    
  87.00  73.00    -0.45558    
  87.00  74.00    -0.47423    
  87.00  75.00    -0.47905    
  87.00  76.00    -0.47134    
  87.00  77.00    -0.45484    
  87.00  78.00    -0.43319    
  87.00  79.00    -0.41044    
  87.00  80.00    -0.39201    
  87.00  81.00    -0.38040    
  87.00  82.00    -0.37522    
  87.00  83.00    -0.37545    
  87.00  84.00    -0.37622    
  87.00  85.00    -0.37276    
  87.00  86.00    -0.36019    
  87.00  87.00    -0.33753    
  87.00  88.00    -0.30502    
  87.00  89.00    -0.26773    
  88.00 -89.00    -0.33082    
  88.00 -88.00    -0.34018    
  88.00 -87.00    -0.35375    
  88.00 -86.00    -0.36080    
  88.00 -85.00    -0.35156    
  88.00 -84.00    -0.32083    
  88.00 -83.00    -0.26816    
  88.00 -82.00    -0.20347    
  88.00 -81.00    -0.13491    
  88.00 -80.00    -0.77339E-01
  88.00 -79.00    -0.39951E-01
  88.00 -78.00    -0.28087E-01
  88.00 -77.00    -0.38139E-01
  88.00 -76.00    -0.58616E-01
  88.00 -75.00    -0.72760E-01
  88.00 -74.00    -0.63478E-01
  88.00 -73.00    -0.17568E-01
  88.00 -72.00     0.71582E-01
  88.00 -71.00     0.19942    
  88.00 -70.00     0.35111    
  88.00 -69.00     0.50406    
  88.00 -68.00     0.63193    
  88.00 -67.00     0.71057    
  88.00 -66.00     0.72286    
  88.00 -65.00     0.66263    
  88.00 -64.00     0.53732    
  88.00 -63.00     0.36451    
  88.00 -62.00     0.17029    
  88.00 -61.00    -0.17996E-01
  88.00 -60.00    -0.17575    
  88.00 -59.00    -0.28724    
  88.00 -58.00    -0.34725    
  88.00 -57.00    -0.36121    
  88.00 -56.00    -0.34208    
  88.00 -55.00    -0.30616    
  88.00 -54.00    -0.26794    
  88.00 -53.00    -0.23635    
  88.00 -52.00    -0.21312    
  88.00 -51.00    -0.19353    
  88.00 -50.00    -0.16946    
  88.00 -49.00    -0.13388    
  88.00 -48.00    -0.84491E-01
  88.00 -47.00    -0.26458E-01
  88.00 -46.00     0.28064E-01
  88.00 -45.00     0.62570E-01
  88.00 -44.00     0.61246E-01
  88.00 -43.00     0.14201E-01
  88.00 -42.00    -0.78427E-01
  88.00 -41.00    -0.20462    
  88.00 -40.00    -0.34215    
  88.00 -39.00    -0.46338    
  88.00 -38.00    -0.54154    
  88.00 -37.00    -0.55751    
  88.00 -36.00    -0.50480    
  88.00 -35.00    -0.39148    
  88.00 -34.00    -0.23848    
  88.00 -33.00    -0.74868E-01
  88.00 -32.00     0.68835E-01
  88.00 -31.00     0.16727    
  88.00 -30.00     0.20532    
  88.00 -29.00     0.18032    
  88.00 -28.00     0.10131    
  88.00 -27.00    -0.14330E-01
  88.00 -26.00    -0.14555    
  88.00 -25.00    -0.27228    
  88.00 -24.00    -0.37884    
  88.00 -23.00    -0.45563    
  88.00 -22.00    -0.49904    
  88.00 -21.00    -0.51015    
  88.00 -20.00    -0.49307    
  88.00 -19.00    -0.45357    
  88.00 -18.00    -0.39840    
  88.00 -17.00    -0.33501    
  88.00 -16.00    -0.27147    
  88.00 -15.00    -0.21589    
  88.00 -14.00    -0.17519    
  88.00 -13.00    -0.15333    
  88.00 -12.00    -0.14952    
  88.00 -11.00    -0.15734    
  88.00 -10.00    -0.16531    
  88.00  -9.00    -0.15933    
  88.00  -8.00    -0.12651    
  88.00  -7.00    -0.59483E-01
  88.00  -6.00     0.40286E-01
  88.00  -5.00     0.16128    
  88.00  -4.00     0.28371    
  88.00  -3.00     0.38406    
  88.00  -2.00     0.44128    
  88.00  -1.00     0.44301    
  88.00   0.00     0.38982    
  88.00   1.00     0.29600    
  88.00   2.00     0.18657    
  88.00   3.00     0.91036E-01
  88.00   4.00     0.35627E-01
  88.00   5.00     0.36384E-01
  88.00   6.00     0.95044E-01
  88.00   7.00     0.19906    
  88.00   8.00     0.32572    
  88.00   9.00     0.44916    
  88.00  10.00     0.54798    
  88.00  11.00     0.61116    
  88.00  12.00     0.64048    
  88.00  13.00     0.64848    
  88.00  14.00     0.65304    
  88.00  15.00     0.67001    
  88.00  16.00     0.70668    
  88.00  17.00     0.75814    
  88.00  18.00     0.80786    
  88.00  19.00     0.83252    
  88.00  20.00     0.80952    
  88.00  21.00     0.72491    
  88.00  22.00     0.57922    
  88.00  23.00     0.38911    
  88.00  24.00     0.18435    
  88.00  25.00     0.70903E-03
  88.00  26.00    -0.12911    
  88.00  27.00    -0.18401    
  88.00  28.00    -0.16005    
  88.00  29.00    -0.71437E-01
  88.00  30.00     0.53127E-01
  88.00  31.00     0.17777    
  88.00  32.00     0.26817    
  88.00  33.00     0.29949    
  88.00  34.00     0.26127    
  88.00  35.00     0.15857    
  88.00  36.00     0.92447E-02
  88.00  37.00    -0.16144    
  88.00  38.00    -0.32704    
  88.00  39.00    -0.46535    
  88.00  40.00    -0.56186    
  88.00  41.00    -0.61067    
  88.00  42.00    -0.61315    
  88.00  43.00    -0.57591    
  88.00  44.00    -0.50789    
  88.00  45.00    -0.41888    
  88.00  46.00    -0.31826    
  88.00  47.00    -0.21541    
  88.00  48.00    -0.11964    
  88.00  49.00    -0.40015E-01
  88.00  50.00     0.15119E-01
  88.00  51.00     0.39914E-01
  88.00  52.00     0.32408E-01
  88.00  53.00    -0.40832E-02
  88.00  54.00    -0.61032E-01
  88.00  55.00    -0.12588    
  88.00  56.00    -0.18456    
  88.00  57.00    -0.22468    
  88.00  58.00    -0.23810    
  88.00  59.00    -0.22309    
  88.00  60.00    -0.18425    
  88.00  61.00    -0.13135    
  88.00  62.00    -0.77071E-01
  88.00  63.00    -0.33256E-01
  88.00  64.00    -0.94026E-02
  88.00  65.00    -0.10430E-01
  88.00  66.00    -0.36576E-01
  88.00  67.00    -0.84200E-01
  88.00  68.00    -0.14711    
  88.00  69.00    -0.21799    
  88.00  70.00    -0.28995    
  88.00  71.00    -0.35701    
  88.00  72.00    -0.41455    
  88.00  73.00    -0.45817    
  88.00  74.00    -0.48556    
  88.00  75.00    -0.49536    
  88.00  76.00    -0.48800    
  88.00  77.00    -0.46711    
  88.00  78.00    -0.43757    
  88.00  79.00    -0.40533    
  88.00  80.00    -0.37799    
  88.00  81.00    -0.35978    
  88.00  82.00    -0.35150    
  88.00  83.00    -0.35231    
  88.00  84.00    -0.35667    
  88.00  85.00    -0.35807    
  88.00  86.00    -0.35098    
  88.00  87.00    -0.33284    
  88.00  88.00    -0.30331    
  88.00  89.00    -0.26744    
  89.00 -89.00    -0.33270    
  89.00 -88.00    -0.34240    
  89.00 -87.00    -0.35483    
  89.00 -86.00    -0.36002    
  89.00 -85.00    -0.34939    
  89.00 -84.00    -0.31868    
  89.00 -83.00    -0.26813    
  89.00 -82.00    -0.20774    
  89.00 -81.00    -0.14444    
  89.00 -80.00    -0.91318E-01
  89.00 -79.00    -0.55262E-01
  89.00 -78.00    -0.39785E-01
  89.00 -77.00    -0.40280E-01
  89.00 -76.00    -0.45766E-01
  89.00 -75.00    -0.41579E-01
  89.00 -74.00    -0.14018E-01
  89.00 -73.00     0.46233E-01
  89.00 -72.00     0.14227    
  89.00 -71.00     0.26710    
  89.00 -70.00     0.40594    
  89.00 -69.00     0.53815    
  89.00 -68.00     0.64150    
  89.00 -67.00     0.69679    
  89.00 -66.00     0.69179    
  89.00 -65.00     0.62396    
  89.00 -64.00     0.50176    
  89.00 -63.00     0.34160    
  89.00 -62.00     0.16614    
  89.00 -61.00    -0.21532E-02
  89.00 -60.00    -0.14344    
  89.00 -59.00    -0.24574    
  89.00 -58.00    -0.30557    
  89.00 -57.00    -0.32781    
  89.00 -56.00    -0.32302    
  89.00 -55.00    -0.30416    
  89.00 -54.00    -0.28242    
  89.00 -53.00    -0.26467    
  89.00 -52.00    -0.25203    
  89.00 -51.00    -0.24092    
  89.00 -50.00    -0.22525    
  89.00 -49.00    -0.19989    
  89.00 -48.00    -0.16346    
  89.00 -47.00    -0.12019    
  89.00 -46.00    -0.79398E-01
  89.00 -45.00    -0.53363E-01
  89.00 -44.00    -0.53533E-01
  89.00 -43.00    -0.86695E-01
  89.00 -42.00    -0.15199    
  89.00 -41.00    -0.23981    
  89.00 -40.00    -0.33328    
  89.00 -39.00    -0.41210    
  89.00 -38.00    -0.45721    
  89.00 -37.00    -0.45585    
  89.00 -36.00    -0.40495    
  89.00 -35.00    -0.31229    
  89.00 -34.00    -0.19485    
  89.00 -33.00    -0.75083E-01
  89.00 -32.00     0.24132E-01
  89.00 -31.00     0.84333E-01
  89.00 -30.00     0.94989E-01
  89.00 -29.00     0.54909E-01
  89.00 -28.00    -0.28543E-01
  89.00 -27.00    -0.14194    
  89.00 -26.00    -0.26911    
  89.00 -25.00    -0.39421    
  89.00 -24.00    -0.50408    
  89.00 -23.00    -0.58919    
  89.00 -22.00    -0.64379    
  89.00 -21.00    -0.66536    
  89.00 -20.00    -0.65414    
  89.00 -19.00    -0.61295    
  89.00 -18.00    -0.54725    
  89.00 -17.00    -0.46524    
  89.00 -16.00    -0.37746    
  89.00 -15.00    -0.29544    
  89.00 -14.00    -0.22953    
  89.00 -13.00    -0.18629    
  89.00 -12.00    -0.16618    
  89.00 -11.00    -0.16261    
  89.00 -10.00    -0.16277    
  89.00  -9.00    -0.15074    
  89.00  -8.00    -0.11191    
  89.00  -7.00    -0.37721E-01
  89.00  -6.00     0.70682E-01
  89.00  -5.00     0.20141    
  89.00  -4.00     0.33386    
  89.00  -3.00     0.44356    
  89.00  -2.00     0.50873    
  89.00  -1.00     0.51659    
  89.00   0.00     0.46752    
  89.00   1.00     0.37584    
  89.00   2.00     0.26651    
  89.00   3.00     0.16892    
  89.00   4.00     0.10916    
  89.00   5.00     0.10326    
  89.00   6.00     0.15329    
  89.00   7.00     0.24750    
  89.00   8.00     0.36441    
  89.00   9.00     0.47959    
  89.00  10.00     0.57296    
  89.00  11.00     0.63430    
  89.00  12.00     0.66534    
  89.00  13.00     0.67781    
  89.00  14.00     0.68809    
  89.00  15.00     0.71041    
  89.00  16.00     0.75082    
  89.00  17.00     0.80399    
  89.00  18.00     0.85396    
  89.00  19.00     0.87882    
  89.00  20.00     0.85772    
  89.00  21.00     0.77810    
  89.00  22.00     0.64079    
  89.00  23.00     0.46128    
  89.00  24.00     0.26662    
  89.00  25.00     0.88852E-01
  89.00  26.00    -0.43287E-01
  89.00  27.00    -0.11183    
  89.00  28.00    -0.11421    
  89.00  29.00    -0.63669E-01
  89.00  30.00     0.14433E-01
  89.00  31.00     0.89427E-01
  89.00  32.00     0.13311    
  89.00  33.00     0.12646    
  89.00  34.00     0.63509E-01
  89.00  35.00    -0.48357E-01
  89.00  36.00    -0.19136    
  89.00  37.00    -0.34243    
  89.00  38.00    -0.47886    
  89.00  39.00    -0.58281    
  89.00  40.00    -0.64393    
  89.00  41.00    -0.65966    
  89.00  42.00    -0.63364    
  89.00  43.00    -0.57356    
  89.00  44.00    -0.48867    
  89.00  45.00    -0.38858    
  89.00  46.00    -0.28224    
  89.00  47.00    -0.17877    
  89.00  48.00    -0.87134E-01
  89.00  49.00    -0.16157E-01
  89.00  50.00     0.26289E-01
  89.00  51.00     0.35090E-01
  89.00  52.00     0.93594E-02
  89.00  53.00    -0.46337E-01
  89.00  54.00    -0.12217    
  89.00  55.00    -0.20427    
  89.00  56.00    -0.27749    
  89.00  57.00    -0.32859    
  89.00  58.00    -0.34880    
  89.00  59.00    -0.33591    
  89.00  60.00    -0.29414    
  89.00  61.00    -0.23318    
  89.00  62.00    -0.16588    
  89.00  63.00    -0.10467    
  89.00  64.00    -0.60280E-01
  89.00  65.00    -0.39361E-01
  89.00  66.00    -0.44419E-01
  89.00  67.00    -0.74056E-01
  89.00  68.00    -0.12415    
  89.00  69.00    -0.18863    
  89.00  70.00    -0.26085    
  89.00  71.00    -0.33404    
  89.00  72.00    -0.40130    
  89.00  73.00    -0.45590    
  89.00  74.00    -0.49279    
  89.00  75.00    -0.50839    
  89.00  76.00    -0.50223    
  89.00  77.00    -0.47767    
  89.00  78.00    -0.44081    
  89.00  79.00    -0.39949    
  89.00  80.00    -0.36348    
  89.00  81.00    -0.33877    
  89.00  82.00    -0.32744    
  89.00  83.00    -0.32887    
  89.00  84.00    -0.33680    
  89.00  85.00    -0.34313    
  89.00  86.00    -0.34156    
  89.00  87.00    -0.32801    
  89.00  88.00    -0.30153    
  89.00  89.00    -0.26712    
  90.00 -89.00    -0.33460    
  90.00 -88.00    -0.34466    
  90.00 -87.00    -0.35604    
  90.00 -86.00    -0.35955    
  90.00 -85.00    -0.34775    
  90.00 -84.00    -0.31727    
  90.00 -83.00    -0.26903    
  90.00 -82.00    -0.21285    
  90.00 -81.00    -0.15459    
  90.00 -80.00    -0.10555    
  90.00 -79.00    -0.70383E-01
  90.00 -78.00    -0.50829E-01
  90.00 -77.00    -0.41372E-01
  90.00 -76.00    -0.31696E-01
  90.00 -75.00    -0.93303E-02
  90.00 -74.00     0.35986E-01
  90.00 -73.00     0.10965    
  90.00 -72.00     0.21124    
  90.00 -71.00     0.33140    
  90.00 -70.00     0.45546    
  90.00 -69.00     0.56480    
  90.00 -68.00     0.64146    
  90.00 -67.00     0.67131    
  90.00 -66.00     0.64707    
  90.00 -65.00     0.57000    
  90.00 -64.00     0.44959    
  90.00 -63.00     0.30122    
  90.00 -62.00     0.14414    
  90.00 -61.00    -0.39796E-02
  90.00 -60.00    -0.12801    
  90.00 -59.00    -0.21966    
  90.00 -58.00    -0.27714    
  90.00 -57.00    -0.30480    
  90.00 -56.00    -0.31094    
  90.00 -55.00    -0.30532    
  90.00 -54.00    -0.29616    
  90.00 -53.00    -0.28866    
  90.00 -52.00    -0.28375    
  90.00 -51.00    -0.27937    
  90.00 -50.00    -0.27173    
  90.00 -49.00    -0.25764    
  90.00 -48.00    -0.23640    
  90.00 -47.00    -0.21082    
  90.00 -46.00    -0.18676    
  90.00 -45.00    -0.17158    
  90.00 -44.00    -0.17183    
  90.00 -43.00    -0.19093    
  90.00 -42.00    -0.22743    
  90.00 -41.00    -0.27470    
  90.00 -40.00    -0.32210    
  90.00 -39.00    -0.35763    
  90.00 -38.00    -0.37088    
  90.00 -37.00    -0.35589    
  90.00 -36.00    -0.31296    
  90.00 -35.00    -0.24877    
  90.00 -34.00    -0.17500    
  90.00 -33.00    -0.10570    
  90.00 -32.00    -0.54278E-01
  90.00 -31.00    -0.30806E-01
  90.00 -30.00    -0.40418E-01
  90.00 -29.00    -0.82979E-01
  90.00 -28.00    -0.15392    
  90.00 -27.00    -0.24577    
  90.00 -26.00    -0.34976    
  90.00 -25.00    -0.45705    
  90.00 -24.00    -0.55928    
  90.00 -23.00    -0.64863    
  90.00 -22.00    -0.71780    
  90.00 -21.00    -0.76020    
  90.00 -20.00    -0.77073    
  90.00 -19.00    -0.74704    
  90.00 -18.00    -0.69088    
  90.00 -17.00    -0.60889    
  90.00 -16.00    -0.51221    
  90.00 -15.00    -0.41475    
  90.00 -14.00    -0.33005    
  90.00 -13.00    -0.26781    
  90.00 -12.00    -0.23077    
  90.00 -11.00    -0.21343    
  90.00 -10.00    -0.20287    
  90.00  -9.00    -0.18216    
  90.00  -8.00    -0.13529    
  90.00  -7.00    -0.52363E-01
  90.00  -6.00     0.66427E-01
  90.00  -5.00     0.20961    
  90.00  -4.00     0.35645    
  90.00  -3.00     0.48198    
  90.00  -2.00     0.56357    
  90.00  -1.00     0.58742    
  90.00   0.00     0.55274    
  90.00   1.00     0.47256    
  90.00   2.00     0.37062    
  90.00   3.00     0.27528    
  90.00   4.00     0.21214    
  90.00   5.00     0.19746    
  90.00   6.00     0.23447    
  90.00   7.00     0.31339    
  90.00   8.00     0.41529    
  90.00   9.00     0.51826    
  90.00  10.00     0.60415    
  90.00  11.00     0.66358    
  90.00  12.00     0.69773    
  90.00  13.00     0.71653    
  90.00  14.00     0.73378    
  90.00  15.00     0.76110    
  90.00  16.00     0.80272    
  90.00  17.00     0.85283    
  90.00  18.00     0.89660    
  90.00  19.00     0.91451    
  90.00  20.00     0.88865    
  90.00  21.00     0.80899    
  90.00  22.00     0.67751    
  90.00  23.00     0.50893    
  90.00  24.00     0.32752    
  90.00  25.00     0.16105    
  90.00  26.00     0.33510E-01
  90.00  27.00    -0.41142E-01
  90.00  28.00    -0.62505E-01
  90.00  29.00    -0.43483E-01
  90.00  30.00    -0.64710E-02
  90.00  31.00     0.22859E-01
  90.00  32.00     0.22325E-01
  90.00  33.00    -0.21310E-01
  90.00  34.00    -0.10959    
  90.00  35.00    -0.23280    
  90.00  36.00    -0.37318    
  90.00  37.00    -0.50974    
  90.00  38.00    -0.62312    
  90.00  39.00    -0.69931    
  90.00  40.00    -0.73148    
  90.00  41.00    -0.71970    
  90.00  42.00    -0.66933    
  90.00  43.00    -0.58880    
  90.00  44.00    -0.48766    
  90.00  45.00    -0.37560    
  90.00  46.00    -0.26176    
  90.00  47.00    -0.15556    
  90.00  48.00    -0.66267E-01
  90.00  49.00    -0.28077E-02
  90.00  50.00     0.27313E-01
  90.00  51.00     0.19920E-01
  90.00  52.00    -0.24385E-01
  90.00  53.00    -0.99295E-01
  90.00  54.00    -0.19323    
  90.00  55.00    -0.29078    
  90.00  56.00    -0.37574    
  90.00  57.00    -0.43428    
  90.00  58.00    -0.45745    
  90.00  59.00    -0.44307    
  90.00  60.00    -0.39544    
  90.00  61.00    -0.32447    
  90.00  62.00    -0.24323    
  90.00  63.00    -0.16470    
  90.00  64.00    -0.10051    
  90.00  65.00    -0.58749E-01
  90.00  66.00    -0.43859E-01
  90.00  67.00    -0.56474E-01
  90.00  68.00    -0.94431E-01
  90.00  69.00    -0.15297    
  90.00  70.00    -0.22573    
  90.00  71.00    -0.30531    
  90.00  72.00    -0.38263    
  90.00  73.00    -0.44869    
  90.00  74.00    -0.49573    
  90.00  75.00    -0.51791    
  90.00  76.00    -0.51376    
  90.00  77.00    -0.48629    
  90.00  78.00    -0.44271    
  90.00  79.00    -0.39279    
  90.00  80.00    -0.34843    
  90.00  81.00    -0.31739    
  90.00  82.00    -0.30308    
  90.00  83.00    -0.30514    
  90.00  84.00    -0.31667    
  90.00  85.00    -0.32797    
  90.00  86.00    -0.33196    
  90.00  87.00    -0.32306    
  90.00  88.00    -0.29969    
  90.00  89.00    -0.26679    
  91.00 -89.00    -0.33650    
  91.00 -88.00    -0.34697    
  91.00 -87.00    -0.35741    
  91.00 -86.00    -0.35939    
  91.00 -85.00    -0.34663    
  91.00 -84.00    -0.31659    
  91.00 -83.00    -0.27083    
  91.00 -82.00    -0.21872    
  91.00 -81.00    -0.16529    
  91.00 -80.00    -0.12000    
  91.00 -79.00    -0.85344E-01
  91.00 -78.00    -0.61372E-01
  91.00 -77.00    -0.41753E-01
  91.00 -76.00    -0.16976E-01
  91.00 -75.00     0.23171E-01
  91.00 -74.00     0.85497E-01
  91.00 -73.00     0.17148    
  91.00 -72.00     0.27724    
  91.00 -71.00     0.39121    
  91.00 -70.00     0.49880    
  91.00 -69.00     0.58357    
  91.00 -68.00     0.63186    
  91.00 -67.00     0.63467    
  91.00 -66.00     0.58973    
  91.00 -65.00     0.50207    
  91.00 -64.00     0.38232    
  91.00 -63.00     0.24486    
  91.00 -62.00     0.10561    
  91.00 -61.00    -0.22415E-01
  91.00 -60.00    -0.12871    
  91.00 -59.00    -0.20848    
  91.00 -58.00    -0.26159    
  91.00 -57.00    -0.29180    
  91.00 -56.00    -0.30520    
  91.00 -55.00    -0.30858    
  91.00 -54.00    -0.30748    
  91.00 -53.00    -0.30583    
  91.00 -52.00    -0.30489    
  91.00 -51.00    -0.30449    
  91.00 -50.00    -0.30349    
  91.00 -49.00    -0.30072    
  91.00 -48.00    -0.29605    
  91.00 -47.00    -0.29060    
  91.00 -46.00    -0.28626    
  91.00 -45.00    -0.28496    
  91.00 -44.00    -0.28795    
  91.00 -43.00    -0.29506    
  91.00 -42.00    -0.30428    
  91.00 -41.00    -0.31226    
  91.00 -40.00    -0.31516    
  91.00 -39.00    -0.30982    
  91.00 -38.00    -0.29487    
  91.00 -37.00    -0.27130    
  91.00 -36.00    -0.24239    
  91.00 -35.00    -0.21294    
  91.00 -34.00    -0.18811    
  91.00 -33.00    -0.17218    
  91.00 -32.00    -0.16777    
  91.00 -31.00    -0.17564    
  91.00 -30.00    -0.19522    
  91.00 -29.00    -0.22551    
  91.00 -28.00    -0.26598    
  91.00 -27.00    -0.31700    
  91.00 -26.00    -0.37950    
  91.00 -25.00    -0.45388    
  91.00 -24.00    -0.53855    
  91.00 -23.00    -0.62870    
  91.00 -22.00    -0.71591    
  91.00 -21.00    -0.78899    
  91.00 -20.00    -0.83618    
  91.00 -19.00    -0.84806    
  91.00 -18.00    -0.82045    
  91.00 -17.00    -0.75625    
  91.00 -16.00    -0.66552    
  91.00 -15.00    -0.56335    
  91.00 -14.00    -0.46610    
  91.00 -13.00    -0.38688    
  91.00 -12.00    -0.33167    
  91.00 -11.00    -0.29724    
  91.00 -10.00    -0.27190    
  91.00  -9.00    -0.23884    
  91.00  -8.00    -0.18135    
  91.00  -7.00    -0.88469E-01
  91.00  -6.00     0.40836E-01
  91.00  -5.00     0.19611    
  91.00  -4.00     0.35729    
  91.00  -3.00     0.49961    
  91.00  -2.00     0.60010    
  91.00  -1.00     0.64400    
  91.00   0.00     0.62901    
  91.00   1.00     0.56622    
  91.00   2.00     0.47728    
  91.00   3.00     0.38872    
  91.00   4.00     0.32504    
  91.00   5.00     0.30255    
  91.00   6.00     0.32582    
  91.00   7.00     0.38762    
  91.00   8.00     0.47224    
  91.00   9.00     0.56099    
  91.00  10.00     0.63814    
  91.00  11.00     0.69522    
  91.00  12.00     0.73257    
  91.00  13.00     0.75768    
  91.00  14.00     0.78101    
  91.00  15.00     0.81090    
  91.00  16.00     0.84933    
  91.00  17.00     0.89005    
  91.00  18.00     0.91982    
  91.00  19.00     0.92237    
  91.00  20.00     0.88382    
  91.00  21.00     0.79774    
  91.00  22.00     0.66823    
  91.00  23.00     0.50981    
  91.00  24.00     0.34417    
  91.00  25.00     0.19462    
  91.00  26.00     0.79933E-01
  91.00  27.00     0.93988E-02
  91.00  28.00    -0.19488E-01
  91.00  29.00    -0.20016E-01
  91.00  30.00    -0.12325E-01
  91.00  31.00    -0.17748E-01
  91.00  32.00    -0.53087E-01
  91.00  33.00    -0.12639    
  91.00  34.00    -0.23532    
  91.00  35.00    -0.36824    
  91.00  36.00    -0.50761    
  91.00  37.00    -0.63432    
  91.00  38.00    -0.73192    
  91.00  39.00    -0.78945    
  91.00  40.00    -0.80255    
  91.00  41.00    -0.77287    
  91.00  42.00    -0.70652    
  91.00  43.00    -0.61197    
  91.00  44.00    -0.49879    
  91.00  45.00    -0.37683    
  91.00  46.00    -0.25586    
  91.00  47.00    -0.14619    
  91.00  48.00    -0.58014E-01
  91.00  49.00    -0.80785E-03
  91.00  50.00     0.18064E-01
  91.00  51.00    -0.45956E-02
  91.00  52.00    -0.66458E-01
  91.00  53.00    -0.15916    
  91.00  54.00    -0.26910    
  91.00  55.00    -0.37921    
  91.00  56.00    -0.47233    
  91.00  57.00    -0.53438    
  91.00  58.00    -0.55668    
  91.00  59.00    -0.53758    
  91.00  60.00    -0.48184    
  91.00  61.00    -0.39983    
  91.00  62.00    -0.30483    
  91.00  63.00    -0.21013    
  91.00  64.00    -0.12792    
  91.00  65.00    -0.67328E-01
  91.00  66.00    -0.34361E-01
  91.00  67.00    -0.31457E-01
  91.00  68.00    -0.58294E-01
  91.00  69.00    -0.11148    
  91.00  70.00    -0.18509    
  91.00  71.00    -0.27119    
  91.00  72.00    -0.35876    
  91.00  73.00    -0.43662    
  91.00  74.00    -0.49431    
  91.00  75.00    -0.52375    
  91.00  76.00    -0.52236    
  91.00  77.00    -0.49274    
  91.00  78.00    -0.44311    
  91.00  79.00    -0.38512    
  91.00  80.00    -0.33278    
  91.00  81.00    -0.29563    
  91.00  82.00    -0.27845    
  91.00  83.00    -0.28118    
  91.00  84.00    -0.29629    
  91.00  85.00    -0.31262    
  91.00  86.00    -0.32220    
  91.00  87.00    -0.31799    
  91.00  88.00    -0.29778    
  91.00  89.00    -0.26644    
  92.00 -89.00    -0.33840    
  92.00 -88.00    -0.34932    
  92.00 -87.00    -0.35893    
  92.00 -86.00    -0.35955    
  92.00 -85.00    -0.34603    
  92.00 -84.00    -0.31661    
  92.00 -83.00    -0.27347    
  92.00 -82.00    -0.22530    
  92.00 -81.00    -0.17650    
  92.00 -80.00    -0.13463    
  92.00 -79.00    -0.10018    
  92.00 -78.00    -0.71572E-01
  92.00 -77.00    -0.41766E-01
  92.00 -76.00    -0.21698E-02
  92.00 -75.00     0.55124E-01
  92.00 -74.00     0.13351    
  92.00 -73.00     0.23061    
  92.00 -72.00     0.33914    
  92.00 -71.00     0.44552    
  92.00 -70.00     0.53529    
  92.00 -69.00     0.59426    
  92.00 -68.00     0.61309    
  92.00 -67.00     0.58787    
  92.00 -66.00     0.52133    
  92.00 -65.00     0.42219    
  92.00 -64.00     0.30230    
  92.00 -63.00     0.17498    
  92.00 -62.00     0.52957E-01
  92.00 -61.00    -0.55249E-01
  92.00 -60.00    -0.14357    
  92.00 -59.00    -0.21054    
  92.00 -58.00    -0.25747    
  92.00 -57.00    -0.28749    
  92.00 -56.00    -0.30452    
  92.00 -55.00    -0.31254    
  92.00 -54.00    -0.31476    
  92.00 -53.00    -0.31419    
  92.00 -52.00    -0.31290    
  92.00 -51.00    -0.31306    
  92.00 -50.00    -0.31643    
  92.00 -49.00    -0.32414    
  92.00 -48.00    -0.33662    
  92.00 -47.00    -0.35309    
  92.00 -46.00    -0.37120    
  92.00 -45.00    -0.38718    
  92.00 -44.00    -0.39668    
  92.00 -43.00    -0.39573    
  92.00 -42.00    -0.38173    
  92.00 -41.00    -0.35468    
  92.00 -40.00    -0.31763    
  92.00 -39.00    -0.27637    
  92.00 -38.00    -0.23854    
  92.00 -37.00    -0.21180    
  92.00 -36.00    -0.20195    
  92.00 -35.00    -0.21119    
  92.00 -34.00    -0.23730    
  92.00 -33.00    -0.27401    
  92.00 -32.00    -0.31252    
  92.00 -31.00    -0.34398    
  92.00 -30.00    -0.36231    
  92.00 -29.00    -0.36632    
  92.00 -28.00    -0.36067    
  92.00 -27.00    -0.35501    
  92.00 -26.00    -0.36155    
  92.00 -25.00    -0.39146    
  92.00 -24.00    -0.45113    
  92.00 -23.00    -0.53948    
  92.00 -22.00    -0.64715    
  92.00 -21.00    -0.75796    
  92.00 -20.00    -0.85251    
  92.00 -19.00    -0.91298    
  92.00 -18.00    -0.92770    
  92.00 -17.00    -0.89430    
  92.00 -16.00    -0.82037    
  92.00 -15.00    -0.72127    
  92.00 -14.00    -0.61573    
  92.00 -13.00    -0.52043    
  92.00 -12.00    -0.44515    
  92.00 -11.00    -0.39004    
  92.00 -10.00    -0.34582    
  92.00  -9.00    -0.29701    
