 -81.00  -6.00     0.79029    
 -81.00  -5.00     0.86202    
 -81.00  -4.00     0.93206    
 -81.00  -3.00     0.99249    
 -81.00  -2.00      1.0288    
 -81.00  -1.00      1.0249    
 -81.00   0.00     0.96966    
 -81.00   1.00     0.86189    
 -81.00   2.00     0.71295    
 -81.00   3.00     0.54531    
 -81.00   4.00     0.38758    
 -81.00   5.00     0.26745    
 -81.00   6.00     0.20451    
 -81.00   7.00     0.20527    
 -81.00   8.00     0.26160    
 -81.00   9.00     0.35327    
 -81.00  10.00     0.45363    
 -81.00  11.00     0.53678    
 -81.00  12.00     0.58432    
 -81.00  13.00     0.58965    
 -81.00  14.00     0.55896    
 -81.00  15.00     0.50872    
 -81.00  16.00     0.46064    
 -81.00  17.00     0.43558    
 -81.00  18.00     0.44811    
 -81.00  19.00     0.50299    
 -81.00  20.00     0.59436    
 -81.00  21.00     0.70752    
 -81.00  22.00     0.82259    
 -81.00  23.00     0.91903    
 -81.00  24.00     0.97997    
 -81.00  25.00     0.99531    
 -81.00  26.00     0.96330    
 -81.00  27.00     0.89032    
 -81.00  28.00     0.78922    
 -81.00  29.00     0.67655    
 -81.00  30.00     0.56923    
 -81.00  31.00     0.48127    
 -81.00  32.00     0.42091    
 -81.00  33.00     0.38890    
 -81.00  34.00     0.37815    
 -81.00  35.00     0.37506    
 -81.00  36.00     0.36255    
 -81.00  37.00     0.32422    
 -81.00  38.00     0.24898    
 -81.00  39.00     0.13502    
 -81.00  40.00    -0.79960E-02
 -81.00  41.00    -0.15938    
 -81.00  42.00    -0.29070    
 -81.00  43.00    -0.37148    
 -81.00  44.00    -0.37622    
 -81.00  45.00    -0.29083    
 -81.00  46.00    -0.11693    
 -81.00  47.00     0.12698    
 -81.00  48.00     0.40907    
 -81.00  49.00     0.68996    
 -81.00  50.00     0.93143    
 -81.00  51.00      1.1041    
 -81.00  52.00      1.1932    
 -81.00  53.00      1.2005    
 -81.00  54.00      1.1418    
 -81.00  55.00      1.0416    
 -81.00  56.00     0.92495    
 -81.00  57.00     0.81126    
 -81.00  58.00     0.70893    
 -81.00  59.00     0.61552    
 -81.00  60.00     0.51947    
 -81.00  61.00     0.40749    
 -81.00  62.00     0.27025    
 -81.00  63.00     0.10801    
 -81.00  64.00    -0.66878E-01
 -81.00  65.00    -0.23174    
 -81.00  66.00    -0.35957    
 -81.00  67.00    -0.42571    
 -81.00  68.00    -0.41614    
 -81.00  69.00    -0.33246    
 -81.00  70.00    -0.19319    
 -81.00  71.00    -0.30185E-01
 -81.00  72.00     0.11782    
 -81.00  73.00     0.21453    
 -81.00  74.00     0.23534    
 -81.00  75.00     0.17301    
 -81.00  76.00     0.39975E-01
 -81.00  77.00    -0.13510    
 -81.00  78.00    -0.31540    
 -81.00  79.00    -0.46356    
 -81.00  80.00    -0.55253    
 -81.00  81.00    -0.57143    
 -81.00  82.00    -0.52741    
 -81.00  83.00    -0.44430    
 -81.00  84.00    -0.35449    
 -81.00  85.00    -0.28908    
 -81.00  86.00    -0.27214    
 -81.00  87.00    -0.31185    
 -81.00  88.00    -0.39697    
 -81.00  89.00    -0.49996    
 -80.00 -89.00    -0.71369E-01
 -80.00 -88.00    -0.15359    
 -80.00 -87.00    -0.22471    
 -80.00 -86.00    -0.25668    
 -80.00 -85.00    -0.23041    
 -80.00 -84.00    -0.14491    
 -80.00 -83.00    -0.13432E-01
 -80.00 -82.00     0.13877    
 -80.00 -81.00     0.27923    
 -80.00 -80.00     0.37728    
 -80.00 -79.00     0.41348    
 -80.00 -78.00     0.38092    
 -80.00 -77.00     0.28865    
 -80.00 -76.00     0.15952    
 -80.00 -75.00     0.25303E-01
 -80.00 -74.00    -0.82134E-01
 -80.00 -73.00    -0.13677    
 -80.00 -72.00    -0.12559    
 -80.00 -71.00    -0.51410E-01
 -80.00 -70.00     0.66739E-01
 -80.00 -69.00     0.19777    
 -80.00 -68.00     0.30528    
 -80.00 -67.00     0.35612    
 -80.00 -66.00     0.32836    
 -80.00 -65.00     0.21757    
 -80.00 -64.00     0.38227E-01
 -80.00 -63.00    -0.17832    
 -80.00 -62.00    -0.39085    
 -80.00 -61.00    -0.55732    
 -80.00 -60.00    -0.64511    
 -80.00 -59.00    -0.63852    
 -80.00 -58.00    -0.54244    
 -80.00 -57.00    -0.38114    
 -80.00 -56.00    -0.19142    
 -80.00 -55.00    -0.13739E-01
 -80.00 -54.00     0.11878    
 -80.00 -53.00     0.18756    
 -80.00 -52.00     0.19325    
 -80.00 -51.00     0.15294    
 -80.00 -50.00     0.94824E-01
 -80.00 -49.00     0.48478E-01
 -80.00 -48.00     0.35302E-01
 -80.00 -47.00     0.62495E-01
 -80.00 -46.00     0.12077    
 -80.00 -45.00     0.18789    
 -80.00 -44.00     0.23581    
 -80.00 -43.00     0.23980    
 -80.00 -42.00     0.18648    
 -80.00 -41.00     0.78306E-01
 -80.00 -40.00    -0.67114E-01
 -80.00 -39.00    -0.22191    
 -80.00 -38.00    -0.35604    
 -80.00 -37.00    -0.44568    
 -80.00 -36.00    -0.47932    
 -80.00 -35.00    -0.45973    
 -80.00 -34.00    -0.40145    
 -80.00 -33.00    -0.32470    
 -80.00 -32.00    -0.24804    
 -80.00 -31.00    -0.18230    
 -80.00 -30.00    -0.12777    
 -80.00 -29.00    -0.75696E-01
 -80.00 -28.00    -0.13238E-01
 -80.00 -27.00     0.69706E-01
 -80.00 -26.00     0.17449    
 -80.00 -25.00     0.29074    
 -80.00 -24.00     0.39761    
 -80.00 -23.00     0.46918    
 -80.00 -22.00     0.48233    
 -80.00 -21.00     0.42465    
 -80.00 -20.00     0.29968    
 -80.00 -19.00     0.12782    
 -80.00 -18.00    -0.57626E-01
 -80.00 -17.00    -0.21824    
 -80.00 -16.00    -0.31982    
 -80.00 -15.00    -0.34053    
 -80.00 -14.00    -0.27557    
 -80.00 -13.00    -0.13717    
 -80.00 -12.00     0.49842E-01
 -80.00 -11.00     0.25542    
 -80.00 -10.00     0.45211    
 -80.00  -9.00     0.62099    
 -80.00  -8.00     0.75421    
 -80.00  -7.00     0.85364    
 -80.00  -6.00     0.92659    
 -80.00  -5.00     0.98044    
 -80.00  -4.00      1.0182    
 -80.00  -3.00      1.0368    
 -80.00  -2.00      1.0280    
 -80.00  -1.00     0.98300    
 -80.00   0.00     0.89681    
 -80.00   1.00     0.77275    
 -80.00   2.00     0.62404    
 -80.00   3.00     0.47211    
 -80.00   4.00     0.34197    
 -80.00   5.00     0.25593    
 -80.00   6.00     0.22755    
 -80.00   7.00     0.25777    
 -80.00   8.00     0.33447    
 -80.00   9.00     0.43553    
 -80.00  10.00     0.53474    
 -80.00  11.00     0.60867    
 -80.00  12.00     0.64266    
 -80.00  13.00     0.63430    
 -80.00  14.00     0.59347    
 -80.00  15.00     0.53918    
 -80.00  16.00     0.49412    
 -80.00  17.00     0.47856    
 -80.00  18.00     0.50516    
 -80.00  19.00     0.57601    
 -80.00  20.00     0.68242    
 -80.00  21.00     0.80723    
 -80.00  22.00     0.92891    
 -80.00  23.00      1.0263    
 -80.00  24.00      1.0830    
 -80.00  25.00      1.0901    
 -80.00  26.00      1.0475    
 -80.00  27.00     0.96353    
 -80.00  28.00     0.85250    
 -80.00  29.00     0.73200    
 -80.00  30.00     0.61928    
 -80.00  31.00     0.52800    
 -80.00  32.00     0.46559    
 -80.00  33.00     0.43177    
 -80.00  34.00     0.41854    
 -80.00  35.00     0.41186    
 -80.00  36.00     0.39481    
 -80.00  37.00     0.35180    
 -80.00  38.00     0.27298    
 -80.00  39.00     0.15785    
 -80.00  40.00     0.17010E-01
 -80.00  41.00    -0.12871    
 -80.00  42.00    -0.25175    
 -80.00  43.00    -0.32363    
 -80.00  44.00    -0.32150    
 -80.00  45.00    -0.23418    
 -80.00  46.00    -0.65728E-01
 -80.00  47.00     0.16407    
 -80.00  48.00     0.42364    
 -80.00  49.00     0.67553    
 -80.00  50.00     0.88485    
 -80.00  51.00      1.0262    
 -80.00  52.00      1.0891    
 -80.00  53.00      1.0780    
 -80.00  54.00      1.0105    
 -80.00  55.00     0.91092    
 -80.00  56.00     0.80256    
 -80.00  57.00     0.70182    
 -80.00  58.00     0.61399    
 -80.00  59.00     0.53385    
 -80.00  60.00     0.44825    
 -80.00  61.00     0.34351    
 -80.00  62.00     0.21113    
 -80.00  63.00     0.52975E-01
 -80.00  64.00    -0.11699    
 -80.00  65.00    -0.27490    
 -80.00  66.00    -0.39351    
 -80.00  67.00    -0.44905    
 -80.00  68.00    -0.42911    
 -80.00  69.00    -0.33726    
 -80.00  70.00    -0.19381    
 -80.00  71.00    -0.31482E-01
 -80.00  72.00     0.11104    
 -80.00  73.00     0.19879    
 -80.00  74.00     0.20923    
 -80.00  75.00     0.13750    
 -80.00  76.00    -0.18850E-02
 -80.00  77.00    -0.17869    
 -80.00  78.00    -0.35581    
 -80.00  79.00    -0.49663    
 -80.00  80.00    -0.57561    
 -80.00  81.00    -0.58365    
 -80.00  82.00    -0.52983    
 -80.00  83.00    -0.43916    
 -80.00  84.00    -0.34470    
 -80.00  85.00    -0.27763    
 -80.00  86.00    -0.26123    
 -80.00  87.00    -0.30280    
 -80.00  88.00    -0.39073    
 -80.00  89.00    -0.49674    
 -79.00 -89.00    -0.71161E-01
 -79.00 -88.00    -0.15448    
 -79.00 -87.00    -0.22739    
 -79.00 -86.00    -0.26088    
 -79.00 -85.00    -0.23478    
 -79.00 -84.00    -0.14706    
 -79.00 -83.00    -0.11009E-01
 -79.00 -82.00     0.14846    
 -79.00 -81.00     0.29739    
 -79.00 -80.00     0.40361    
 -79.00 -79.00     0.44615    
 -79.00 -78.00     0.41681    
 -79.00 -77.00     0.32425    
 -79.00 -76.00     0.19145    
 -79.00 -75.00     0.51287E-01
 -79.00 -74.00    -0.62788E-01
 -79.00 -73.00    -0.12340    
 -79.00 -72.00    -0.11653    
 -79.00 -71.00    -0.44532E-01
 -79.00 -70.00     0.73000E-01
 -79.00 -69.00     0.20403    
 -79.00 -68.00     0.31104    
 -79.00 -67.00     0.36000    
 -79.00 -66.00     0.32877    
 -79.00 -65.00     0.21326    
 -79.00 -64.00     0.29107E-01
 -79.00 -63.00    -0.19121    
 -79.00 -62.00    -0.40544    
 -79.00 -61.00    -0.57117    
 -79.00 -60.00    -0.65607    
 -79.00 -59.00    -0.64540    
 -79.00 -58.00    -0.54523    
 -79.00 -57.00    -0.38074    
 -79.00 -56.00    -0.18906    
 -79.00 -55.00    -0.99546E-02
 -79.00 -54.00     0.12475    
 -79.00 -53.00     0.19813    
 -79.00 -52.00     0.21210    
 -79.00 -51.00     0.18397    
 -79.00 -50.00     0.14081    
 -79.00 -49.00     0.10960    
 -79.00 -48.00     0.10833    
 -79.00 -47.00     0.14070    
 -79.00 -46.00     0.19501    
 -79.00 -45.00     0.24839    
 -79.00 -44.00     0.27471    
 -79.00 -43.00     0.25330    
 -79.00 -42.00     0.17641    
 -79.00 -41.00     0.52219E-01
 -79.00 -40.00    -0.97014E-01
 -79.00 -39.00    -0.24133    
 -79.00 -38.00    -0.35174    
 -79.00 -37.00    -0.40866    
 -79.00 -36.00    -0.40721    
 -79.00 -35.00    -0.35779    
 -79.00 -34.00    -0.28190    
 -79.00 -33.00    -0.20453    
 -79.00 -32.00    -0.14577    
 -79.00 -31.00    -0.11437    
 -79.00 -30.00    -0.10541    
 -79.00 -29.00    -0.10287    
 -79.00 -28.00    -0.86166E-01
 -79.00 -27.00    -0.38458E-01
 -79.00 -26.00     0.46055E-01
 -79.00 -25.00     0.15845    
 -79.00 -24.00     0.27631    
 -79.00 -23.00     0.36969    
 -79.00 -22.00     0.41003    
 -79.00 -21.00     0.37922    
 -79.00 -20.00     0.27609    
 -79.00 -19.00     0.11816    
 -79.00 -18.00    -0.61958E-01
 -79.00 -17.00    -0.22437    
 -79.00 -16.00    -0.33177    
 -79.00 -15.00    -0.35841    
 -79.00 -14.00    -0.29574    
 -79.00 -13.00    -0.15333    
 -79.00 -12.00     0.44967E-01
 -79.00 -11.00     0.26802    
 -79.00 -10.00     0.48542    
 -79.00  -9.00     0.67393    
 -79.00  -8.00     0.82094    
 -79.00  -7.00     0.92411    
 -79.00  -6.00     0.98809    
 -79.00  -5.00      1.0198    
 -79.00  -4.00      1.0245    
 -79.00  -3.00      1.0033    
 -79.00  -2.00     0.95442    
 -79.00  -1.00     0.87531    
 -79.00   0.00     0.76695    
 -79.00   1.00     0.63662    
 -79.00   2.00     0.49883    
 -79.00   3.00     0.37340    
 -79.00   4.00     0.28110    
 -79.00   5.00     0.23822    
 -79.00   6.00     0.25170    
 -79.00   7.00     0.31650    
 -79.00   8.00     0.41621    
 -79.00   9.00     0.52677    
 -79.00  10.00     0.62255    
 -79.00  11.00     0.68283    
 -79.00  12.00     0.69710    
 -79.00  13.00     0.66757    
 -79.00  14.00     0.60833    
 -79.00  15.00     0.54147    
 -79.00  16.00     0.49122    
 -79.00  17.00     0.47782    
 -79.00  18.00     0.51264    
 -79.00  19.00     0.59558    
 -79.00  20.00     0.71545    
 -79.00  21.00     0.85276    
 -79.00  22.00     0.98418    
 -79.00  23.00      1.0875    
 -79.00  24.00      1.1461    
 -79.00  25.00      1.1514    
 -79.00  26.00      1.1044    
 -79.00  27.00      1.0145    
 -79.00  28.00     0.89739    
 -79.00  29.00     0.77167    
 -79.00  30.00     0.65526    
 -79.00  31.00     0.56204    
 -79.00  32.00     0.49924    
 -79.00  33.00     0.46607    
 -79.00  34.00     0.45399    
 -79.00  35.00     0.44851    
 -79.00  36.00     0.43261    
 -79.00  37.00     0.39099    
 -79.00  38.00     0.31441    
 -79.00  39.00     0.20304    
 -79.00  40.00     0.67904E-01
 -79.00  41.00    -0.70328E-01
 -79.00  42.00    -0.18506    
 -79.00  43.00    -0.24960    
 -79.00  44.00    -0.24346    
 -79.00  45.00    -0.15794    
 -79.00  46.00     0.89864E-03
 -79.00  47.00     0.21243    
 -79.00  48.00     0.44561    
 -79.00  49.00     0.66521    
 -79.00  50.00     0.83974    
 -79.00  51.00     0.94798    
 -79.00  52.00     0.98330    
 -79.00  53.00     0.95340    
 -79.00  54.00     0.87731    
 -79.00  55.00     0.77896    
 -79.00  56.00     0.67986    
 -79.00  57.00     0.59333    
 -79.00  58.00     0.52141    
 -79.00  59.00     0.45596    
 -79.00  60.00     0.38216    
 -79.00  61.00     0.28581    
 -79.00  62.00     0.15913    
 -79.00  63.00     0.55401E-02
 -79.00  64.00    -0.15945    
 -79.00  65.00    -0.31084    
 -79.00  66.00    -0.42111    
 -79.00  67.00    -0.46735    
 -79.00  68.00    -0.43864    
 -79.00  69.00    -0.34038    
 -79.00  70.00    -0.19452    
 -79.00  71.00    -0.34456E-01
 -79.00  72.00     0.10131    
 -79.00  73.00     0.17929    
 -79.00  74.00     0.17900    
 -79.00  75.00     0.97987E-01
 -79.00  76.00    -0.47306E-01
 -79.00  77.00    -0.22513    
 -79.00  78.00    -0.39824    
 -79.00  79.00    -0.53093    
 -79.00  80.00    -0.59924    
 -79.00  81.00    -0.59592    
 -79.00  82.00    -0.53201    
 -79.00  83.00    -0.43365    
 -79.00  84.00    -0.33452    
 -79.00  85.00    -0.26593    
 -79.00  86.00    -0.25018    
 -79.00  87.00    -0.29371    
 -79.00  88.00    -0.38449    
 -79.00  89.00    -0.49355    
 -78.00 -89.00    -0.70919E-01
 -78.00 -88.00    -0.15529    
 -78.00 -87.00    -0.22995    
 -78.00 -86.00    -0.26496    
 -78.00 -85.00    -0.23912    
 -78.00 -84.00    -0.14933    
 -78.00 -83.00    -0.88421E-02
 -78.00 -82.00     0.15767    
 -78.00 -81.00     0.31485    
 -78.00 -80.00     0.42909    
 -78.00 -79.00     0.47791    
 -78.00 -78.00     0.45180    
 -78.00 -77.00     0.35903    
 -78.00 -76.00     0.22268    
 -78.00 -75.00     0.76668E-01
 -78.00 -74.00    -0.44066E-01
 -78.00 -73.00    -0.11087    
 -78.00 -72.00    -0.10877    
 -78.00 -71.00    -0.39762E-01
 -78.00 -70.00     0.76118E-01
 -78.00 -69.00     0.20600    
 -78.00 -68.00     0.31141    
 -78.00 -67.00     0.35769    
 -78.00 -66.00     0.32271    
 -78.00 -65.00     0.20290    
 -78.00 -64.00     0.15047E-01
 -78.00 -63.00    -0.20732    
 -78.00 -62.00    -0.42116    
 -78.00 -61.00    -0.58404    
 -78.00 -60.00    -0.66433    
 -78.00 -59.00    -0.64860    
 -78.00 -58.00    -0.54430    
 -78.00 -57.00    -0.37765    
 -78.00 -56.00    -0.18603    
 -78.00 -55.00    -0.83599E-02
 -78.00 -54.00     0.12506    
 -78.00 -53.00     0.19922    
 -78.00 -52.00     0.21747    
 -78.00 -51.00     0.19764    
 -78.00 -50.00     0.16578    
 -78.00 -49.00     0.14652    
 -78.00 -48.00     0.15472    
 -78.00 -47.00     0.19092    
 -78.00 -46.00     0.24140    
 -78.00 -45.00     0.28300    
 -78.00 -44.00     0.29166    
 -78.00 -43.00     0.25075    
 -78.00 -42.00     0.15774    
 -78.00 -41.00     0.25965E-01
 -78.00 -40.00    -0.11853    
 -78.00 -39.00    -0.24456    
 -78.00 -38.00    -0.32501    
 -78.00 -37.00    -0.34508    
 -78.00 -36.00    -0.30670    
 -78.00 -35.00    -0.22779    
 -78.00 -34.00    -0.13644    
 -78.00 -33.00    -0.61929E-01
 -78.00 -32.00    -0.25389E-01
 -78.00 -31.00    -0.33196E-01
 -78.00 -30.00    -0.75122E-01
 -78.00 -29.00    -0.12796    
 -78.00 -28.00    -0.16346    
 -78.00 -27.00    -0.15800    
 -78.00 -26.00    -0.10105    
 -78.00 -25.00     0.55270E-03
 -78.00 -24.00     0.12372    
 -78.00 -23.00     0.23547    
 -78.00 -22.00     0.30265    
 -78.00 -21.00     0.30195    
 -78.00 -20.00     0.22738    
 -78.00 -19.00     0.92708E-01
 -78.00 -18.00    -0.71533E-01
 -78.00 -17.00    -0.22580    
 -78.00 -16.00    -0.33154    
 -78.00 -15.00    -0.36069    
 -78.00 -14.00    -0.30193    
 -78.00 -13.00    -0.16227    
 -78.00 -12.00     0.36048E-01
 -78.00 -11.00     0.26223    
 -78.00 -10.00     0.48473    
 -78.00  -9.00     0.67800    
 -78.00  -8.00     0.82641    
 -78.00  -7.00     0.92471    
 -78.00  -6.00     0.97558    
 -78.00  -5.00     0.98561    
 -78.00  -4.00     0.96160    
 -78.00  -3.00     0.90842    
 -78.00  -2.00     0.82904    
 -78.00  -1.00     0.72652    
 -78.00   0.00     0.60660    
 -78.00   1.00     0.47973    
 -78.00   2.00     0.36112    
 -78.00   3.00     0.26862    
 -78.00   4.00     0.21866    
 -78.00   5.00     0.22159    
 -78.00   6.00     0.27794    
 -78.00   7.00     0.37696    
 -78.00   8.00     0.49822    
 -78.00   9.00     0.61599    
 -78.00  10.00     0.70531    
 -78.00  11.00     0.74821    
 -78.00  12.00     0.73821    
 -78.00  13.00     0.68204    
 -78.00  14.00     0.59792    
 -78.00  15.00     0.51106    
 -78.00  16.00     0.44753    
 -78.00  17.00     0.42806    
 -78.00  18.00     0.46338    
 -78.00  19.00     0.55199    
 -78.00  20.00     0.68094    
 -78.00  21.00     0.82891    
 -78.00  22.00     0.97100    
 -78.00  23.00      1.0838    
 -78.00  24.00      1.1498    
 -78.00  25.00      1.1602    
 -78.00  26.00      1.1162    
 -78.00  27.00      1.0277    
 -78.00  28.00     0.91104    
 -78.00  29.00     0.78575    
 -78.00  30.00     0.67054    
 -78.00  31.00     0.57986    
 -78.00  32.00     0.52118    
 -78.00  33.00     0.49361    
 -78.00  34.00     0.48822    
 -78.00  35.00     0.49006    
 -78.00  36.00     0.48169    
 -78.00  37.00     0.44760    
 -78.00  38.00     0.37857    
 -78.00  39.00     0.27496    
 -78.00  40.00     0.14782    
 -78.00  41.00     0.17568E-01
 -78.00  42.00    -0.90064E-01
 -78.00  43.00    -0.14982    
 -78.00  44.00    -0.14313    
 -78.00  45.00    -0.63238E-01
 -78.00  46.00     0.82266E-01
 -78.00  47.00     0.27227    
 -78.00  48.00     0.47646    
 -78.00  49.00     0.66193    
 -78.00  50.00     0.80054    
 -78.00  51.00     0.87510    
 -78.00  52.00     0.88278    
 -78.00  53.00     0.83417    
 -78.00  54.00     0.74971    
 -78.00  55.00     0.65291    
 -78.00  56.00     0.56332    
 -78.00  57.00     0.49124    
 -78.00  58.00     0.43547    
 -78.00  59.00     0.38493    
 -78.00  60.00     0.32315    
 -78.00  61.00     0.23536    
 -78.00  62.00     0.11449    
 -78.00  63.00    -0.34599E-01
 -78.00  64.00    -0.19490    
 -78.00  65.00    -0.34036    
 -78.00  66.00    -0.44321    
 -78.00  67.00    -0.48139    
 -78.00  68.00    -0.44541    
 -78.00  69.00    -0.34237    
 -78.00  70.00    -0.19571    
 -78.00  71.00    -0.39350E-01
 -78.00  72.00     0.88548E-01
 -78.00  73.00     0.15604    
 -78.00  74.00     0.14476    
 -78.00  75.00     0.54656E-01
 -78.00  76.00    -0.96055E-01
 -78.00  77.00    -0.27418    
 -78.00  78.00    -0.44247    
 -78.00  79.00    -0.56628    
 -78.00  80.00    -0.62330    
 -78.00  81.00    -0.60818    
 -78.00  82.00    -0.53393    
 -78.00  83.00    -0.42776    
 -78.00  84.00    -0.32397    
 -78.00  85.00    -0.25399    
 -78.00  86.00    -0.23900    
 -78.00  87.00    -0.28458    
 -78.00  88.00    -0.37826    
 -78.00  89.00    -0.49036    
 -77.00 -89.00    -0.70645E-01
 -77.00 -88.00    -0.15600    
 -77.00 -87.00    -0.23240    
 -77.00 -86.00    -0.26894    
 -77.00 -85.00    -0.24345    
 -77.00 -84.00    -0.15176    
 -77.00 -83.00    -0.70073E-02
 -77.00 -82.00     0.16625    
 -77.00 -81.00     0.33140    
 -77.00 -80.00     0.45348    
 -77.00 -79.00     0.50845    
 -77.00 -78.00     0.48554    
 -77.00 -77.00     0.39258    
 -77.00 -76.00     0.25276    
 -77.00 -75.00     0.10095    
 -77.00 -74.00    -0.26524E-01
 -77.00 -73.00    -0.99809E-01
 -77.00 -72.00    -0.10304    
 -77.00 -71.00    -0.37891E-01
 -77.00 -70.00     0.75250E-01
 -77.00 -69.00     0.20281    
 -77.00 -68.00     0.30558    
 -77.00 -67.00     0.34851    
 -77.00 -66.00     0.30972    
 -77.00 -65.00     0.18631    
 -77.00 -64.00    -0.38023E-02
 -77.00 -63.00    -0.22613    
 -77.00 -62.00    -0.43709    
 -77.00 -61.00    -0.59464    
 -77.00 -60.00    -0.66821    
 -77.00 -59.00    -0.64605    
 -77.00 -58.00    -0.53726    
 -77.00 -57.00    -0.36922    
 -77.00 -56.00    -0.17956    
 -77.00 -55.00    -0.62259E-02
 -77.00 -54.00     0.12220    
 -77.00 -53.00     0.19287    
 -77.00 -52.00     0.21080    
 -77.00 -51.00     0.19461    
 -77.00 -50.00     0.16969    
 -77.00 -49.00     0.15862    
 -77.00 -48.00     0.17362    
 -77.00 -47.00     0.21249    
 -77.00 -46.00     0.25990    
 -77.00 -45.00     0.29269    
 -77.00 -44.00     0.28886    
 -77.00 -43.00     0.23554    
 -77.00 -42.00     0.13483    
 -77.00 -41.00     0.42841E-02
 -77.00 -40.00    -0.12723    
 -77.00 -39.00    -0.22823    
 -77.00 -38.00    -0.27414    
 -77.00 -37.00    -0.25518    
 -77.00 -36.00    -0.17997    
 -77.00 -35.00    -0.73356E-01
 -77.00 -34.00     0.30744E-01
 -77.00 -33.00     0.99552E-01
 -77.00 -32.00     0.11142    
 -77.00 -31.00     0.62567E-01
 -77.00 -30.00    -0.31665E-01
 -77.00 -29.00    -0.14137    
 -77.00 -28.00    -0.23120    
 -77.00 -27.00    -0.27127    
 -77.00 -26.00    -0.24639    
 -77.00 -25.00    -0.16098    
 -77.00 -24.00    -0.38033E-01
 -77.00 -23.00     0.87509E-01
 -77.00 -22.00     0.17896    
 -77.00 -21.00     0.20859    
 -77.00 -20.00     0.16576    
 -77.00 -19.00     0.60060E-01
 -77.00 -18.00    -0.81224E-01
 -77.00 -17.00    -0.22049    
 -77.00 -16.00    -0.31971    
 -77.00 -15.00    -0.34998    
 -77.00 -14.00    -0.29812    
 -77.00 -13.00    -0.16876    
 -77.00 -12.00     0.18261E-01
 -77.00 -11.00     0.23392    
 -77.00 -10.00     0.44751    
 -77.00  -9.00     0.63319    
 -77.00  -8.00     0.77412    
 -77.00  -7.00     0.86341    
 -77.00  -6.00     0.90227    
 -77.00  -5.00     0.89669    
 -77.00  -4.00     0.85418    
 -77.00  -3.00     0.78172    
 -77.00  -2.00     0.68557    
 -77.00  -1.00     0.57256    
 -77.00   0.00     0.45183    
 -77.00   1.00     0.33595    
 -77.00   2.00     0.24035    
 -77.00   3.00     0.18096    
 -77.00   4.00     0.17035    
 -77.00   5.00     0.21380    
 -77.00   6.00     0.30647    
 -77.00   7.00     0.43297    
 -77.00   8.00     0.56971    
 -77.00   9.00     0.68980    
 -77.00  10.00     0.76912    
 -77.00  11.00     0.79216    
 -77.00  12.00     0.75591    
 -77.00  13.00     0.67086    
 -77.00  14.00     0.55864    
 -77.00  15.00     0.44710    
 -77.00  16.00     0.36402    
 -77.00  17.00     0.33090    
 -77.00  18.00     0.35855    
 -77.00  19.00     0.44504    
 -77.00  20.00     0.57666    
 -77.00  21.00     0.73118    
 -77.00  22.00     0.88268    
 -77.00  23.00      1.0067    
 -77.00  24.00      1.0846    
 -77.00  25.00      1.1068    
 -77.00  26.00      1.0736    
 -77.00  27.00     0.99472    
 -77.00  28.00     0.88668    
 -77.00  29.00     0.76942    
 -77.00  30.00     0.66239    
 -77.00  31.00     0.58075    
 -77.00  32.00     0.53248    
 -77.00  33.00     0.51683    
 -77.00  34.00     0.52461    
 -77.00  35.00     0.54028    
 -77.00  36.00     0.54568    
 -77.00  37.00     0.52468    
 -77.00  38.00     0.46761    
 -77.00  39.00     0.37456    
 -77.00  40.00     0.25648    
 -77.00  41.00     0.13350    
 -77.00  42.00     0.30777E-01
 -77.00  43.00    -0.27418E-01
 -77.00  44.00    -0.23849E-01
 -77.00  45.00     0.46823E-01
 -77.00  46.00     0.17595    
 -77.00  47.00     0.34224    
 -77.00  48.00     0.51623    
 -77.00  49.00     0.66726    
 -77.00  50.00     0.77035    
 -77.00  51.00     0.81206    
 -77.00  52.00     0.79303    
 -77.00  53.00     0.72651    
 -77.00  54.00     0.63414    
 -77.00  55.00     0.53893    
 -77.00  56.00     0.45850    
 -77.00  57.00     0.40022    
 -77.00  58.00     0.35977    
 -77.00  59.00     0.32325    
 -77.00  60.00     0.27267    
 -77.00  61.00     0.19275    
 -77.00  62.00     0.77090E-01
 -77.00  63.00    -0.68022E-01
 -77.00  64.00    -0.22419    
 -77.00  65.00    -0.36443    
 -77.00  66.00    -0.46078    
 -77.00  67.00    -0.49205    
 -77.00  68.00    -0.45013    
 -77.00  69.00    -0.34378    
 -77.00  70.00    -0.19775    
 -77.00  71.00    -0.46382E-01
 -77.00  72.00     0.72688E-01
 -77.00  73.00     0.12911    
 -77.00  74.00     0.10670    
 -77.00  75.00     0.77416E-02
 -77.00  76.00    -0.14785    
 -77.00  77.00    -0.32557    
 -77.00  78.00    -0.48828    
 -77.00  79.00    -0.60250    
 -77.00  80.00    -0.64766    
 -77.00  81.00    -0.62035    
 -77.00  82.00    -0.53555    
 -77.00  83.00    -0.42150    
 -77.00  84.00    -0.31308    
 -77.00  85.00    -0.24182    
 -77.00  86.00    -0.22772    
 -77.00  87.00    -0.27542    
 -77.00  88.00    -0.37204    
 -77.00  89.00    -0.48720    
 -76.00 -89.00    -0.70336E-01
 -76.00 -88.00    -0.15663    
 -76.00 -87.00    -0.23473    
 -76.00 -86.00    -0.27281    
 -76.00 -85.00    -0.24780    
 -76.00 -84.00    -0.15440    
 -76.00 -83.00    -0.55816E-02
 -76.00 -82.00     0.17407    
 -76.00 -81.00     0.34688    
 -76.00 -80.00     0.47653    
 -76.00 -79.00     0.53747    
 -76.00 -78.00     0.51767    
 -76.00 -77.00     0.42452    
 -76.00 -76.00     0.28126    
 -76.00 -75.00     0.12366    
 -76.00 -74.00    -0.10666E-01
 -76.00 -73.00    -0.90773E-01
 -76.00 -72.00    -0.99925E-01
 -76.00 -71.00    -0.39554E-01
 -76.00 -70.00     0.69753E-01
 -76.00 -69.00     0.19386    
 -76.00 -68.00     0.29306    
 -76.00 -67.00     0.33215    
 -76.00 -66.00     0.28970    
 -76.00 -65.00     0.16371    
 -76.00 -64.00    -0.26903E-01
 -76.00 -63.00    -0.24675    
 -76.00 -62.00    -0.45203    
 -76.00 -61.00    -0.60140    
 -76.00 -60.00    -0.66582    
 -76.00 -59.00    -0.63552    
 -76.00 -58.00    -0.52157    
 -76.00 -57.00    -0.35260    
 -76.00 -56.00    -0.16652    
 -76.00 -55.00    -0.22371E-03
 -76.00 -54.00     0.11959    
 -76.00 -53.00     0.18245    
 -76.00 -52.00     0.19529    
 -76.00 -51.00     0.17790    
 -76.00 -50.00     0.15534    
 -76.00 -49.00     0.14862    
 -76.00 -48.00     0.16784    
 -76.00 -47.00     0.20860    
 -76.00 -46.00     0.25430    
 -76.00 -45.00     0.28200    
 -76.00 -44.00     0.27158    
 -76.00 -43.00     0.21344    
 -76.00 -42.00     0.11341    
 -76.00 -41.00    -0.77129E-02
 -76.00 -40.00    -0.11940    
 -76.00 -39.00    -0.19074    
 -76.00 -38.00    -0.20011    
 -76.00 -37.00    -0.14275    
 -76.00 -36.00    -0.33313E-01
 -76.00 -35.00     0.97383E-01
 -76.00 -34.00     0.21078    
 -76.00 -33.00     0.27163    
 -76.00 -32.00     0.25844    
 -76.00 -31.00     0.17009    
 -76.00 -30.00     0.26582E-01
 -76.00 -29.00    -0.13641    
 -76.00 -28.00    -0.27758    
 -76.00 -27.00    -0.36172    
 -76.00 -26.00    -0.36962    
 -76.00 -25.00    -0.30329    
 -76.00 -24.00    -0.18505    
 -76.00 -23.00    -0.50774E-01
 -76.00 -22.00     0.60503E-01
 -76.00 -21.00     0.11766    
 -76.00 -20.00     0.10597    
 -76.00 -19.00     0.30752E-01
 -76.00 -18.00    -0.84701E-01
 -76.00 -17.00    -0.20598    
 -76.00 -16.00    -0.29700    
 -76.00 -15.00    -0.32931    
 -76.00 -14.00    -0.28866    
 -76.00 -13.00    -0.17732    
 -76.00 -12.00    -0.12027E-01
 -76.00 -11.00     0.18144    
 -76.00 -10.00     0.37504    
 -76.00  -9.00     0.54460    
 -76.00  -8.00     0.67373    
 -76.00  -7.00     0.75492    
 -76.00  -6.00     0.78818    
 -76.00  -5.00     0.77830    
 -76.00  -4.00     0.73215    
 -76.00  -3.00     0.65697    
 -76.00  -2.00     0.56020    
 -76.00  -1.00     0.45039    
 -76.00   0.00     0.33840    
 -76.00   1.00     0.23785    
 -76.00   2.00     0.16409    
 -76.00   3.00     0.13149    
 -76.00   4.00     0.14987    
 -76.00   5.00     0.22099    
 -76.00   6.00     0.33641    
 -76.00   7.00     0.47780    
 -76.00   8.00     0.61981    
 -76.00   9.00     0.73521    
 -76.00  10.00     0.80090    
 -76.00  11.00     0.80334    
 -76.00  12.00     0.74200    
 -76.00  13.00     0.62981    
 -76.00  14.00     0.49048    
 -76.00  15.00     0.35350    
 -76.00  16.00     0.24774    
 -76.00  17.00     0.19555    
 -76.00  18.00     0.20839    
 -76.00  19.00     0.28492    
 -76.00  20.00     0.41193    
 -76.00  21.00     0.56743    
 -76.00  22.00     0.72534    
 -76.00  23.00     0.86053    
 -76.00  24.00     0.95332    
 -76.00  25.00     0.99267    
 -76.00  26.00     0.97754    
 -76.00  27.00     0.91643    
 -76.00  28.00     0.82529    
 -76.00  29.00     0.72406    
 -76.00  30.00     0.63267    
 -76.00  31.00     0.56699    
 -76.00  32.00     0.53565    
 -76.00  33.00     0.53820    
 -76.00  34.00     0.56522    
 -76.00  35.00     0.60052    
 -76.00  36.00     0.62500    
 -76.00  37.00     0.62148    
 -76.00  38.00     0.57950    
 -76.00  39.00     0.49863    
 -76.00  40.00     0.38956    
 -76.00  41.00     0.27231    
 -76.00  42.00     0.17179    
 -76.00  43.00     0.11178    
 -76.00  44.00     0.10876    
 -76.00  45.00     0.16722    
 -76.00  46.00     0.27787    
 -76.00  47.00     0.41949    
 -76.00  48.00     0.56350    
 -76.00  49.00     0.68128    
 -76.00  50.00     0.75072    
 -76.00  51.00     0.76170    
 -76.00  52.00     0.71791    
 -76.00  53.00     0.63496    
 -76.00  54.00     0.53543    
 -76.00  55.00     0.44175    
 -76.00  56.00     0.36968    
 -76.00  57.00     0.32383    
 -76.00  58.00     0.29699    
 -76.00  59.00     0.27270    
 -76.00  60.00     0.23164    
 -76.00  61.00     0.15813    
 -76.00  62.00     0.46530E-01
 -76.00  63.00    -0.95528E-01
 -76.00  64.00    -0.24834    
 -76.00  65.00    -0.38412    
 -76.00  66.00    -0.47485    
 -76.00  67.00    -0.50022    
 -76.00  68.00    -0.45356    
 -76.00  69.00    -0.34517    
 -76.00  70.00    -0.20099    
 -76.00  71.00    -0.55726E-01
 -76.00  72.00     0.53727E-01
 -76.00  73.00     0.98639E-01
 -76.00  74.00     0.65039E-01
 -76.00  75.00    -0.42465E-01
 -76.00  76.00    -0.20238    
 -76.00  77.00    -0.37897    
 -76.00  78.00    -0.53539    
 -76.00  79.00    -0.63938    
 -76.00  80.00    -0.67217    
 -76.00  81.00    -0.63234    
 -76.00  82.00    -0.53684    
 -76.00  83.00    -0.41487    
 -76.00  84.00    -0.30188    
 -76.00  85.00    -0.22945    
 -76.00  86.00    -0.21635    
 -76.00  87.00    -0.26625    
 -76.00  88.00    -0.36584    
 -76.00  89.00    -0.48406    
 -75.00 -89.00    -0.69994E-01
 -75.00 -88.00    -0.15717    
 -75.00 -87.00    -0.23693    
 -75.00 -86.00    -0.27658    
 -75.00 -85.00    -0.25217    
 -75.00 -84.00    -0.15730    
 -75.00 -83.00    -0.46418E-02
 -75.00 -82.00     0.18102    
 -75.00 -81.00     0.36109    
 -75.00 -80.00     0.49800    
 -75.00 -79.00     0.56468    
 -75.00 -78.00     0.54788    
 -75.00 -77.00     0.45447    
 -75.00 -76.00     0.30780    
 -75.00 -75.00     0.14441    
 -75.00 -74.00     0.30785E-02
 -75.00 -73.00    -0.84214E-01
 -75.00 -72.00    -0.99890E-01
 -75.00 -71.00    -0.45206E-01
 -75.00 -70.00     0.59217E-01
 -75.00 -69.00     0.17884    
 -75.00 -68.00     0.27369    
 -75.00 -67.00     0.30866    
 -75.00 -66.00     0.26297    
 -75.00 -65.00     0.13567    
 -75.00 -64.00    -0.53360E-01
 -75.00 -63.00    -0.26801    
 -75.00 -62.00    -0.46453    
 -75.00 -61.00    -0.60268    
 -75.00 -60.00    -0.65528    
 -75.00 -59.00    -0.61489    
 -75.00 -58.00    -0.49479    
 -75.00 -57.00    -0.32503    
 -75.00 -56.00    -0.14377    
 -75.00 -55.00     0.13166E-01
 -75.00 -54.00     0.12113    
 -75.00 -53.00     0.17221    
 -75.00 -52.00     0.17553    
 -75.00 -51.00     0.15235    
 -75.00 -50.00     0.12782    
 -75.00 -49.00     0.12195    
 -75.00 -48.00     0.14320    
 -75.00 -47.00     0.18550    
 -75.00 -46.00     0.23132    
 -75.00 -45.00     0.25802    
 -75.00 -44.00     0.24707    
 -75.00 -43.00     0.19139    
 -75.00 -42.00     0.99558E-01
 -75.00 -41.00    -0.55715E-02
 -75.00 -40.00    -0.92898E-01
 -75.00 -39.00    -0.13281    
 -75.00 -38.00    -0.10691    
 -75.00 -37.00    -0.14982E-01
 -75.00 -36.00     0.12325    
 -75.00 -35.00     0.27245    
 -75.00 -34.00     0.39091    
 -75.00 -33.00     0.44215    
 -75.00 -32.00     0.40557    
 -75.00 -31.00     0.28268    
 -75.00 -30.00     0.97385E-01
 -75.00 -29.00    -0.11022    
 -75.00 -28.00    -0.29447    
 -75.00 -27.00    -0.41635    
 -75.00 -26.00    -0.45365    
 -75.00 -25.00    -0.40637    
 -75.00 -24.00    -0.29578    
 -75.00 -23.00    -0.15778    
 -75.00 -22.00    -0.32497E-01
 -75.00 -21.00     0.46779E-01
 -75.00 -20.00     0.62130E-01
 -75.00 -19.00     0.14898E-01
 -75.00 -18.00    -0.75927E-01
 -75.00 -17.00    -0.17993    
 -75.00 -16.00    -0.26407    
 -75.00 -15.00    -0.30133    
 -75.00 -14.00    -0.27699    
 -75.00 -13.00    -0.19097    
 -75.00 -12.00    -0.56202E-01
 -75.00 -11.00     0.10601    
 -75.00 -10.00     0.27193    
 -75.00  -9.00     0.42072    
 -75.00  -8.00     0.53780    
 -75.00  -7.00     0.61583    
 -75.00  -6.00     0.65363    
 -75.00  -5.00     0.65398    
 -75.00  -4.00     0.62155    
 -75.00  -3.00     0.56179    
 -75.00  -2.00     0.48104    
 -75.00  -1.00     0.38742    
 -75.00   0.00     0.29180    
 -75.00   1.00     0.20785    
 -75.00   2.00     0.15057    
 -75.00   3.00     0.13351    
 -75.00   4.00     0.16517    
 -75.00   5.00     0.24577    
 -75.00   6.00     0.36555    
 -75.00   7.00     0.50537    
 -75.00   8.00     0.63988    
 -75.00   9.00     0.74257    
 -75.00  10.00     0.79155    
 -75.00  11.00     0.77469    
 -75.00  12.00     0.69262    
 -75.00  13.00     0.55906    
 -75.00  14.00     0.39807    
 -75.00  15.00     0.23923    
 -75.00  16.00     0.11161    
 -75.00  17.00     0.38111E-01
 -75.00  18.00     0.31253E-01
 -75.00  19.00     0.91276E-01
 -75.00  20.00     0.20670    
 -75.00  21.00     0.35710    
 -75.00  22.00     0.51730    
 -75.00  23.00     0.66217    
 -75.00  24.00     0.77108    
 -75.00  25.00     0.83127    
 -75.00  26.00     0.83967    
 -75.00  27.00     0.80289    
 -75.00  28.00     0.73556    
 -75.00  29.00     0.65705    
 -75.00  30.00     0.58748    
 -75.00  31.00     0.54337    
 -75.00  32.00     0.53404    
 -75.00  33.00     0.55948    
 -75.00  34.00     0.61015    
 -75.00  35.00     0.66914    
 -75.00  36.00     0.71622    
 -75.00  37.00     0.73296    
 -75.00  38.00     0.70781    
 -75.00  39.00     0.63963    
 -75.00  40.00     0.53883    
 -75.00  41.00     0.42542    
 -75.00  42.00     0.32442    
 -75.00  43.00     0.25960    
 -75.00  44.00     0.24723    
 -75.00  45.00     0.29143    
 -75.00  46.00     0.38268    
 -75.00  47.00     0.49995    
 -75.00  48.00     0.61554    
 -75.00  49.00     0.70265    
 -75.00  50.00     0.74159    
 -75.00  51.00     0.72510    
 -75.00  52.00     0.65944    
 -75.00  53.00     0.56217    
 -75.00  54.00     0.45653    
 -75.00  55.00     0.36435    
 -75.00  56.00     0.29957    
 -75.00  57.00     0.26431    
 -75.00  58.00     0.24875    
 -75.00  59.00     0.23422    
 -75.00  60.00     0.20033    
 -75.00  61.00     0.13125    
 -75.00  62.00     0.22127E-01
 -75.00  63.00    -0.11807    
 -75.00  64.00    -0.26844    
 -75.00  65.00    -0.40054    
 -75.00  66.00    -0.48644    
 -75.00  67.00    -0.50678    
 -75.00  68.00    -0.45637    
 -75.00  69.00    -0.34702    
 -75.00  70.00    -0.20574    
 -75.00  71.00    -0.67490E-01
 -75.00  72.00     0.31721E-01
 -75.00  73.00     0.64822E-01
 -75.00  74.00     0.20079E-01
 -75.00  75.00    -0.95626E-01
 -75.00  76.00    -0.25926    
 -75.00  77.00    -0.43406    
 -75.00  78.00    -0.58350    
 -75.00  79.00    -0.67669    
 -75.00  80.00    -0.69667    
 -75.00  81.00    -0.64407    
 -75.00  82.00    -0.53776    
 -75.00  83.00    -0.40787    
 -75.00  84.00    -0.29038    
 -75.00  85.00    -0.21689    
 -75.00  86.00    -0.20490    
 -75.00  87.00    -0.25707    
 -75.00  88.00    -0.35965    
 -75.00  89.00    -0.48094    
 -74.00 -89.00    -0.69617E-01
 -74.00 -88.00    -0.15761    
 -74.00 -87.00    -0.23901    
 -74.00 -86.00    -0.28025    
 -74.00 -85.00    -0.25659    
 -74.00 -84.00    -0.16049    
 -74.00 -83.00    -0.42643E-02
 -74.00 -82.00     0.18697    
 -74.00 -81.00     0.37388    
 -74.00 -80.00     0.51767    
 -74.00 -79.00     0.58982    
 -74.00 -78.00     0.57587    
 -74.00 -77.00     0.48213    
 -74.00 -76.00     0.33203    
 -74.00 -75.00     0.16284    
 -74.00 -74.00     0.14361E-01
 -74.00 -73.00    -0.80468E-01
 -74.00 -72.00    -0.10325    
 -74.00 -71.00    -0.55102E-01
 -74.00 -70.00     0.43484E-01
 -74.00 -69.00     0.15773    
 -74.00 -68.00     0.24765    
 -74.00 -67.00     0.27848    
 -74.00 -66.00     0.23025    
 -74.00 -65.00     0.10315    
 -74.00 -64.00    -0.81982E-01
 -74.00 -63.00    -0.28855    
 -74.00 -62.00    -0.47312    
 -74.00 -61.00    -0.59689    
 -74.00 -60.00    -0.63492    
 -74.00 -59.00    -0.58239    
 -74.00 -58.00    -0.45498    
 -74.00 -57.00    -0.28425    
 -74.00 -56.00    -0.10865    
 -74.00 -55.00     0.37163E-01
 -74.00 -54.00     0.13067    
 -74.00 -53.00     0.16670    
 -74.00 -52.00     0.15676    
 -74.00 -51.00     0.12389    
 -74.00 -50.00     0.93754E-01
 -74.00 -49.00     0.85821E-01
 -74.00 -48.00     0.10746    
 -74.00 -47.00     0.15138    
 -74.00 -46.00     0.19937    
 -74.00 -45.00     0.22909    
 -74.00 -44.00     0.22313    
 -74.00 -43.00     0.17615    
 -74.00 -42.00     0.98353E-01
 -74.00 -41.00     0.13482E-01
 -74.00 -40.00    -0.47827E-01
 -74.00 -39.00    -0.57844E-01
 -74.00 -38.00    -0.13333E-02
 -74.00 -37.00     0.11811    
 -74.00 -36.00     0.27708    
 -74.00 -35.00     0.43745    
 -74.00 -34.00     0.55609    
 -74.00 -33.00     0.59675    
 -74.00 -32.00     0.54035    
 -74.00 -31.00     0.39092    
 -74.00 -30.00     0.17520    
 -74.00 -29.00    -0.63953E-01
 -74.00 -28.00    -0.27850    
 -74.00 -27.00    -0.42752    
 -74.00 -26.00    -0.48723    
 -74.00 -25.00    -0.45627    
 -74.00 -24.00    -0.35476    
 -74.00 -23.00    -0.21776    
 -74.00 -22.00    -0.85171E-01
 -74.00 -21.00     0.88939E-02
 -74.00 -20.00     0.44469E-01
 -74.00 -19.00     0.19584E-01
 -74.00 -18.00    -0.50978E-01
 -74.00 -17.00    -0.14122    
 -74.00 -16.00    -0.22184    
 -74.00 -15.00    -0.26799    
 -74.00 -14.00    -0.26496    
 -74.00 -13.00    -0.21036    
 -74.00 -12.00    -0.11283    
 -74.00 -11.00     0.11808E-01
 -74.00 -10.00     0.14539    
 -74.00  -9.00     0.27167    
 -74.00  -8.00     0.37894    
 -74.00  -7.00     0.46056    
 -74.00  -6.00     0.51404    
 -74.00  -5.00     0.53928    
 -74.00  -4.00     0.53732    
 -74.00  -3.00     0.50990    
 -74.00  -2.00     0.46012    
 -74.00  -1.00     0.39373    
 -74.00   0.00     0.32001    
 -74.00   1.00     0.25172    
 -74.00   2.00     0.20342    
 -74.00   3.00     0.18857    
 -74.00   4.00     0.21585    
 -74.00   5.00     0.28605    
 -74.00   6.00     0.39043    
 -74.00   7.00     0.51137    
 -74.00   8.00     0.62537    
 -74.00   9.00     0.70780    
 -74.00  10.00     0.73830    
 -74.00  11.00     0.70552    
 -74.00  12.00     0.60996    
 -74.00  13.00     0.46426    
 -74.00  14.00     0.29091    
 -74.00  15.00     0.11784    
 -74.00  16.00    -0.26907E-01
 -74.00  17.00    -0.12042    
 -74.00  18.00    -0.14891    
 -74.00  19.00    -0.10979    
 -74.00  20.00    -0.11611E-01
 -74.00  21.00     0.12802    
 -74.00  22.00     0.28595    
 -74.00  23.00     0.43781    
 -74.00  24.00     0.56230    
 -74.00  25.00     0.64483    
 -74.00  26.00     0.67979    
 -74.00  27.00     0.67130    
 -74.00  28.00     0.63197    
 -74.00  29.00     0.58015    
 -74.00  30.00     0.53580    
 -74.00  31.00     0.51603    
 -74.00  32.00     0.53098    
 -74.00  33.00     0.58119    
 -74.00  34.00     0.65716    
 -74.00  35.00     0.74133    
 -74.00  36.00     0.81228    
 -74.00  37.00     0.85020    
 -74.00  38.00     0.84225    
 -74.00  39.00     0.78644    
 -74.00  40.00     0.69284    
 -74.00  41.00     0.58159    
 -74.00  42.00     0.47804    
 -74.00  43.00     0.40635    
 -74.00  44.00     0.38297    
 -74.00  45.00     0.41210    
 -74.00  46.00     0.48426    
 -74.00  47.00     0.57875    
 -74.00  48.00     0.66872    
 -74.00  49.00     0.72883    
 -74.00  50.00     0.74145    
 -74.00  51.00     0.70165    
 -74.00  52.00     0.61773    
 -74.00  53.00     0.50881    
 -74.00  54.00     0.39849    
 -74.00  55.00     0.30789    
 -74.00  56.00     0.24927    
 -74.00  57.00     0.22251    
 -74.00  58.00     0.21555    
 -74.00  59.00     0.20791    
 -74.00  60.00     0.17846    
 -74.00  61.00     0.11147    
 -74.00  62.00     0.29942E-02
 -74.00  63.00    -0.13670    
 -74.00  64.00    -0.28559    
 -74.00  65.00    -0.41473    
 -74.00  66.00    -0.49649    
 -74.00  67.00    -0.51252    
 -74.00  68.00    -0.45918    
 -74.00  69.00    -0.34974    
 -74.00  70.00    -0.21220    
 -74.00  71.00    -0.81705E-01
 -74.00  72.00     0.67975E-02
 -74.00  73.00     0.27911E-01
 -74.00  74.00    -0.27837E-01
 -74.00  75.00    -0.15135    
 -74.00  76.00    -0.31811    
 -74.00  77.00    -0.49044    
 -74.00  78.00    -0.63232    
 -74.00  79.00    -0.71419    
 -74.00  80.00    -0.72100    
 -74.00  81.00    -0.65543    
 -74.00  82.00    -0.53826    
 -74.00  83.00    -0.40050    
 -74.00  84.00    -0.27862    
 -74.00  85.00    -0.20417    
 -74.00  86.00    -0.19339    
 -74.00  87.00    -0.24791    
 -74.00  88.00    -0.35350    
 -74.00  89.00    -0.47784    
 -73.00 -89.00    -0.69205E-01
 -73.00 -88.00    -0.15796    
 -73.00 -87.00    -0.24096    
 -73.00 -86.00    -0.28383    
 -73.00 -85.00    -0.26106    
 -73.00 -84.00    -0.16401    
 -73.00 -83.00    -0.45235E-02
 -73.00 -82.00     0.19180    
 -73.00 -81.00     0.38509    
 -73.00 -80.00     0.53534    
 -73.00 -79.00     0.61264    
 -73.00 -78.00     0.60136    
 -73.00 -77.00     0.50720    
 -73.00 -76.00     0.35367    
 -73.00 -75.00     0.17868    
 -73.00 -74.00     0.22926E-01
 -73.00 -73.00    -0.79750E-01
 -73.00 -72.00    -0.11016    
 -73.00 -71.00    -0.69287E-01
 -73.00 -70.00     0.22655E-01
 -73.00 -69.00     0.13084    
 -73.00 -68.00     0.21549    
 -73.00 -67.00     0.24240    
 -73.00 -66.00     0.19256    
 -73.00 -65.00     0.67413E-01
 -73.00 -64.00    -0.11137    
 -73.00 -63.00    -0.30690    
 -73.00 -62.00    -0.47637    
 -73.00 -61.00    -0.58273    
 -73.00 -60.00    -0.60356    
 -73.00 -59.00    -0.53689    
 -73.00 -58.00    -0.40095    
 -73.00 -57.00    -0.22888    
 -73.00 -56.00    -0.59340E-01
 -73.00 -55.00     0.74182E-01
 -73.00 -54.00     0.15142    
 -73.00 -53.00     0.17006    
 -73.00 -52.00     0.14412    
 -73.00 -51.00     0.98677E-01
 -73.00 -50.00     0.60208E-01
 -73.00 -49.00     0.48111E-01
 -73.00 -48.00     0.69056E-01
 -73.00 -47.00     0.11495    
 -73.00 -46.00     0.16705    
 -73.00 -45.00     0.20324    
 -73.00 -44.00     0.20669    
 -73.00 -43.00     0.17298    
 -73.00 -42.00     0.11282    
 -73.00 -41.00     0.49734E-01
 -73.00 -40.00     0.13026E-01
 -73.00 -39.00     0.28166E-01
 -73.00 -38.00     0.10754    
 -73.00 -37.00     0.24476    
 -73.00 -36.00     0.41438    
 -73.00 -35.00     0.57738    
 -73.00 -34.00     0.69112    
 -73.00 -33.00     0.72092    
 -73.00 -32.00     0.64990    
 -73.00 -31.00     0.48425    
 -73.00 -30.00     0.25233    
 -73.00 -29.00    -0.21834E-02
 -73.00 -28.00    -0.23115    
 -73.00 -27.00    -0.39385    
 -73.00 -26.00    -0.46656    
 -73.00 -25.00    -0.44742    
 -73.00 -24.00    -0.35533    
 -73.00 -23.00    -0.22375    
 -73.00 -22.00    -0.91060E-01
 -73.00 -21.00     0.93105E-02
 -73.00 -20.00     0.56673E-01
 -73.00 -19.00     0.46673E-01
 -73.00 -18.00    -0.97108E-02
 -73.00 -17.00    -0.90996E-01
 -73.00 -16.00    -0.17203    
 -73.00 -15.00    -0.23072    
 -73.00 -14.00    -0.25281    
 -73.00 -13.00    -0.23373    
 -73.00 -12.00    -0.17761    
 -73.00 -11.00    -0.94245E-01
 -73.00 -10.00     0.45882E-02
 -73.00  -9.00     0.10812    
 -73.00  -8.00     0.20818    
 -73.00  -7.00     0.29922    
 -73.00  -6.00     0.37731    
 -73.00  -5.00     0.43890    
 -73.00  -4.00     0.48028    
 -73.00  -3.00     0.49803    
 -73.00  -2.00     0.49045    
 -73.00  -1.00     0.45929    
 -73.00   0.00     0.41099    
 -73.00   1.00     0.35658    
 -73.00   2.00     0.31008    
 -73.00   3.00     0.28539    
 -73.00   4.00     0.29265    
 -73.00   5.00     0.33500    
 -73.00   6.00     0.40682    
 -73.00   7.00     0.49407    
 -73.00   8.00     0.57684    
 -73.00   9.00     0.63354    
 -73.00  10.00     0.64571    
 -73.00  11.00     0.60234    
 -73.00  12.00     0.50256    
 -73.00  13.00     0.35630    
 -73.00  14.00     0.18252    
 -73.00  15.00     0.57943E-02
 -73.00  16.00    -0.14821    
 -73.00  17.00    -0.25727    
 -73.00  18.00    -0.30637    
 -73.00  19.00    -0.29003    
 -73.00  20.00    -0.21291    
 -73.00  21.00    -0.88701E-01
 -73.00  22.00     0.62526E-01
 -73.00  23.00     0.21791    
 -73.00  24.00     0.35587    
 -73.00  25.00     0.45995    
 -73.00  26.00     0.52172    
 -73.00  27.00     0.54225    
 -73.00  28.00     0.53168    
 -73.00  29.00     0.50688    
 -73.00  30.00     0.48749    
 -73.00  31.00     0.49114    
 -73.00  32.00     0.52894    
 -73.00  33.00     0.60226    
 -73.00  34.00     0.70185    
 -73.00  35.00     0.80972    
 -73.00  36.00     0.90334    
 -73.00  37.00     0.96146    
 -73.00  38.00     0.96987    
 -73.00  39.00     0.92561    
 -73.00  40.00     0.83831    
 -73.00  41.00     0.72821    
 -73.00  42.00     0.62114    
 -73.00  43.00     0.54183    
 -73.00  44.00     0.50720    
 -73.00  45.00     0.52182    
 -73.00  46.00     0.57647    
 -73.00  47.00     0.65084    
 -73.00  48.00     0.71890    
 -73.00  49.00     0.75648    
 -73.00  50.00     0.74764    
 -73.00  51.00     0.68926    
 -73.00  52.00     0.59122    
 -73.00  53.00     0.47372    
 -73.00  54.00     0.36045    
 -73.00  55.00     0.27173    
 -73.00  56.00     0.21824    
 -73.00  57.00     0.19791    
 -73.00  58.00     0.19679    
 -73.00  59.00     0.19305    
 -73.00  60.00     0.16518    
 -73.00  61.00     0.97826E-01
 -73.00  62.00    -0.11901E-01
 -73.00  63.00    -0.15246    
 -73.00  64.00    -0.30079    
 -73.00  65.00    -0.42763    
 -73.00  66.00    -0.50579    
 -73.00  67.00    -0.51809    
 -73.00  68.00    -0.46245    
 -73.00  69.00    -0.35363    
 -73.00  70.00    -0.22049    
 -73.00  71.00    -0.98308E-01
 -73.00  72.00    -0.20842E-01
 -73.00  73.00    -0.11774E-01
 -73.00  74.00    -0.78310E-01
 -73.00  75.00    -0.20922    
 -73.00  76.00    -0.37848    
 -73.00  77.00    -0.54774    
 -73.00  78.00    -0.68149    
 -73.00  79.00    -0.75162    
 -73.00  80.00    -0.74498    
 -73.00  81.00    -0.66633    
 -73.00  82.00    -0.53830    
 -73.00  83.00    -0.39276    
 -73.00  84.00    -0.26662    
 -73.00  85.00    -0.19130    
 -73.00  86.00    -0.18183    
 -73.00  87.00    -0.23878    
 -73.00  88.00    -0.34737    
 -73.00  89.00    -0.47477    
 -72.00 -89.00    -0.68758E-01
 -72.00 -88.00    -0.15822    
 -72.00 -87.00    -0.24277    
 -72.00 -86.00    -0.28733    
 -72.00 -85.00    -0.26560    
 -72.00 -84.00    -0.16790    
 -72.00 -83.00    -0.54926E-02
 -72.00 -82.00     0.19542    
 -72.00 -81.00     0.39457    
 -72.00 -80.00     0.55083    
 -72.00 -79.00     0.63293    
 -72.00 -78.00     0.62412    
 -72.00 -77.00     0.52943    
 -72.00 -76.00     0.37248    
 -72.00 -75.00     0.19171    
 -72.00 -74.00     0.28615E-01
 -72.00 -73.00    -0.82146E-01
 -72.00 -72.00    -0.12062    
 -72.00 -71.00    -0.87597E-01
 -72.00 -70.00    -0.29154E-02
