 105.00 -89.00    -0.12025E-02
 105.00 -88.00     0.53348E-01
 105.00 -87.00     0.11344    
 105.00 -86.00     0.17977    
 105.00 -85.00     0.25338    
 105.00 -84.00     0.33595    
 105.00 -83.00     0.42130    
 105.00 -82.00     0.49942    
 105.00 -81.00     0.55890    
 105.00 -80.00     0.58816    
 105.00 -79.00     0.58168    
 105.00 -78.00     0.53893    
 105.00 -77.00     0.46737    
 105.00 -76.00     0.38161    
 105.00 -75.00     0.29660    
 105.00 -74.00     0.22451    
 105.00 -73.00     0.17366    
 105.00 -72.00     0.14343    
 105.00 -71.00     0.12817    
 105.00 -70.00     0.11903    
 105.00 -69.00     0.10806    
 105.00 -68.00     0.91451E-01
 105.00 -67.00     0.71083E-01
 105.00 -66.00     0.54051E-01
 105.00 -65.00     0.49667E-01
 105.00 -64.00     0.64196E-01
 105.00 -63.00     0.99160E-01
 105.00 -62.00     0.14819    
 105.00 -61.00     0.19851    
 105.00 -60.00     0.23383    
 105.00 -59.00     0.24008    
 105.00 -58.00     0.21021    
 105.00 -57.00     0.14719    
 105.00 -56.00     0.64720E-01
 105.00 -55.00    -0.16272E-01
 105.00 -54.00    -0.72892E-01
 105.00 -53.00    -0.86979E-01
 105.00 -52.00    -0.50772E-01
 105.00 -51.00     0.29941E-01
 105.00 -50.00     0.13697    
 105.00 -49.00     0.24373    
 105.00 -48.00     0.32147    
 105.00 -47.00     0.34712    
 105.00 -46.00     0.30881    
 105.00 -45.00     0.20864    
 105.00 -44.00     0.62098E-01
 105.00 -43.00    -0.10631    
 105.00 -42.00    -0.26889    
 105.00 -41.00    -0.40149    
 105.00 -40.00    -0.48841    
 105.00 -39.00    -0.52482    
 105.00 -38.00    -0.51643    
 105.00 -37.00    -0.47633    
 105.00 -36.00    -0.42058    
 105.00 -35.00    -0.36373    
 105.00 -34.00    -0.31559    
 105.00 -33.00    -0.27981    
 105.00 -32.00    -0.25463    
 105.00 -31.00    -0.23497    
 105.00 -30.00    -0.21513    
 105.00 -29.00    -0.19118    
 105.00 -28.00    -0.16212    
 105.00 -27.00    -0.12984    
 105.00 -26.00    -0.97853E-01
 105.00 -25.00    -0.69579E-01
 105.00 -24.00    -0.46817E-01
 105.00 -23.00    -0.29039E-01
 105.00 -22.00    -0.13775E-01
 105.00 -21.00     0.20685E-02
 105.00 -20.00     0.20478E-01
 105.00 -19.00     0.40904E-01
 105.00 -18.00     0.59775E-01
 105.00 -17.00     0.71332E-01
 105.00 -16.00     0.69663E-01
 105.00 -15.00     0.51416E-01
 105.00 -14.00     0.18288E-01
 105.00 -13.00    -0.21655E-01
 105.00 -12.00    -0.54557E-01
 105.00 -11.00    -0.63485E-01
 105.00 -10.00    -0.32845E-01
 105.00  -9.00     0.46506E-01
 105.00  -8.00     0.17291    
 105.00  -7.00     0.33173    
 105.00  -6.00     0.49645    
 105.00  -5.00     0.63325    
 105.00  -4.00     0.70842    
 105.00  -3.00     0.69699    
 105.00  -2.00     0.59044    
 105.00  -1.00     0.40116    
 105.00   0.00     0.16218    
 105.00   1.00    -0.78476E-01
 105.00   2.00    -0.26788    
 105.00   3.00    -0.36067    
 105.00   4.00    -0.33079    
 105.00   5.00    -0.17955    
 105.00   6.00     0.62491E-01
 105.00   7.00     0.34071    
 105.00   8.00     0.58786    
 105.00   9.00     0.73923    
 105.00  10.00     0.74800    
 105.00  11.00     0.59686    
 105.00  12.00     0.30301    
 105.00  13.00    -0.84930E-01
 105.00  14.00    -0.49744    
 105.00  15.00    -0.85947    
 105.00  16.00     -1.1069    
 105.00  17.00     -1.2002    
 105.00  18.00     -1.1315    
 105.00  19.00    -0.92470    
 105.00  20.00    -0.62733    
 105.00  21.00    -0.29835    
 105.00  22.00     0.61735E-02
 105.00  23.00     0.24501    
 105.00  24.00     0.39878    
 105.00  25.00     0.47069    
 105.00  26.00     0.48140    
 105.00  27.00     0.46004    
 105.00  28.00     0.43419    
 105.00  29.00     0.42172    
 105.00  30.00     0.42648    
 105.00  31.00     0.43875    
 105.00  32.00     0.43962    
 105.00  33.00     0.40798    
 105.00  34.00     0.32754    
 105.00  35.00     0.19229    
 105.00  36.00     0.87397E-02
 105.00  37.00    -0.20520    
 105.00  38.00    -0.42415    
 105.00  39.00    -0.62088    
 105.00  40.00    -0.77204    
 105.00  41.00    -0.86282    
 105.00  42.00    -0.88967    
 105.00  43.00    -0.86063    
 105.00  44.00    -0.79352    
 105.00  45.00    -0.71239    
 105.00  46.00    -0.64277    
 105.00  47.00    -0.60651    
 105.00  48.00    -0.61686    
 105.00  49.00    -0.67482    
 105.00  50.00    -0.76725    
 105.00  51.00    -0.86796    
 105.00  52.00    -0.94112    
 105.00  53.00    -0.94824    
 105.00  54.00    -0.85571    
 105.00  55.00    -0.64356    
 105.00  56.00    -0.31185    
 105.00  57.00     0.11666    
 105.00  58.00     0.59882    
 105.00  59.00      1.0784    
 105.00  60.00      1.4962    
 105.00  61.00      1.8033    
 105.00  62.00      1.9703    
 105.00  63.00      1.9929    
 105.00  64.00      1.8925    
 105.00  65.00      1.7084    
 105.00  66.00      1.4868    
 105.00  67.00      1.2684    
 105.00  68.00      1.0785    
 105.00  69.00     0.92174    
 105.00  70.00     0.78359    
 105.00  71.00     0.63869    
 105.00  72.00     0.46243    
 105.00  73.00     0.24066    
 105.00  74.00    -0.21544E-01
 105.00  75.00    -0.29952    
 105.00  76.00    -0.55481    
 105.00  77.00    -0.74712    
 105.00  78.00    -0.84641    
 105.00  79.00    -0.84264    
 105.00  80.00    -0.75108    
 105.00  81.00    -0.60847    
 105.00  82.00    -0.46338    
 105.00  83.00    -0.35883    
 105.00  84.00    -0.32360    
 105.00  85.00    -0.35847    
 105.00  86.00    -0.44017    
 105.00  87.00    -0.52368    
 105.00  88.00    -0.56005    
 105.00  89.00    -0.51229    
 106.00 -89.00    -0.13282E-02
 106.00 -88.00     0.53026E-01
 106.00 -87.00     0.11240    
 106.00 -86.00     0.17742    
 106.00 -85.00     0.24932    
 106.00 -84.00     0.33017    
 106.00 -83.00     0.41442    
 106.00 -82.00     0.49326    
 106.00 -81.00     0.55482    
 106.00 -80.00     0.58735    
 106.00 -79.00     0.58417    
 106.00 -78.00     0.54342    
 106.00 -77.00     0.47102    
 106.00 -76.00     0.38047    
 106.00 -75.00     0.28640    
 106.00 -74.00     0.20210    
 106.00 -73.00     0.13796    
 106.00 -72.00     0.96251E-01
 106.00 -71.00     0.74422E-01
 106.00 -70.00     0.66453E-01
 106.00 -69.00     0.65865E-01
 106.00 -68.00     0.68973E-01
 106.00 -67.00     0.76114E-01
 106.00 -66.00     0.91614E-01
 106.00 -65.00     0.12122    
 106.00 -64.00     0.16707    
 106.00 -63.00     0.22764    
 106.00 -62.00     0.29385    
 106.00 -61.00     0.35156    
 106.00 -60.00     0.38426    
 106.00 -59.00     0.37882    
 106.00 -58.00     0.32995    
 106.00 -57.00     0.24322    
 106.00 -56.00     0.13529    
 106.00 -55.00     0.30537E-01
 106.00 -54.00    -0.44780E-01
 106.00 -53.00    -0.69505E-01
 106.00 -52.00    -0.33730E-01
 106.00 -51.00     0.57561E-01
 106.00 -50.00     0.18522    
 106.00 -49.00     0.31983    
 106.00 -48.00     0.42854    
 106.00 -47.00     0.48300    
 106.00 -46.00     0.46624    
 106.00 -45.00     0.37633    
 106.00 -44.00     0.22671    
 106.00 -43.00     0.42344E-01
 106.00 -42.00    -0.14618    
 106.00 -41.00    -0.30995    
 106.00 -40.00    -0.42774    
 106.00 -39.00    -0.48969    
 106.00 -38.00    -0.49806    
 106.00 -37.00    -0.46485    
 106.00 -36.00    -0.40751    
 106.00 -35.00    -0.34406    
 106.00 -34.00    -0.28884    
 106.00 -33.00    -0.25001    
 106.00 -32.00    -0.22907    
 106.00 -31.00    -0.22226    
 106.00 -30.00    -0.22291    
 106.00 -29.00    -0.22406    
 106.00 -28.00    -0.22037    
 106.00 -27.00    -0.20894    
 106.00 -26.00    -0.18916    
 106.00 -25.00    -0.16172    
 106.00 -24.00    -0.12770    
 106.00 -23.00    -0.87989E-01
 106.00 -22.00    -0.43452E-01
 106.00 -21.00     0.43077E-02
 106.00 -20.00     0.51989E-01
 106.00 -19.00     0.94068E-01
 106.00 -18.00     0.12322    
 106.00 -17.00     0.13189    
 106.00 -16.00     0.11484    
 106.00 -15.00     0.71945E-01
 106.00 -14.00     0.10244E-01
 106.00 -13.00    -0.55571E-01
 106.00 -12.00    -0.10501    
 106.00 -11.00    -0.11591    
 106.00 -10.00    -0.70143E-01
 106.00  -9.00     0.40467E-01
 106.00  -8.00     0.20963    
 106.00  -7.00     0.41516    
 106.00  -6.00     0.62143    
 106.00  -5.00     0.78590    
 106.00  -4.00     0.86844    
 106.00  -3.00     0.84141    
 106.00  -2.00     0.69803    
 106.00  -1.00     0.45651    
 106.00   0.00     0.15845    
 106.00   1.00    -0.13869    
 106.00   2.00    -0.37377    
 106.00   3.00    -0.49608    
 106.00   4.00    -0.47796    
 106.00   5.00    -0.32274    
 106.00   6.00    -0.65626E-01
 106.00   7.00     0.23304    
 106.00   8.00     0.50083    
 106.00   9.00     0.66963    
 106.00  10.00     0.69148    
 106.00  11.00     0.54998    
 106.00  12.00     0.26434    
 106.00  13.00    -0.11485    
 106.00  14.00    -0.51707    
 106.00  15.00    -0.86777    
 106.00  16.00     -1.1047    
 106.00  17.00     -1.1909    
 106.00  18.00     -1.1208    
 106.00  19.00    -0.91941    
 106.00  20.00    -0.63384    
 106.00  21.00    -0.32123    
 106.00  22.00    -0.35049E-01
 106.00  23.00     0.18591    
 106.00  24.00     0.32376    
 106.00  25.00     0.38185    
 106.00  26.00     0.37991    
 106.00  27.00     0.34578    
 106.00  28.00     0.30651    
 106.00  29.00     0.28107    
 106.00  30.00     0.27646    
 106.00  31.00     0.28768    
 106.00  32.00     0.30105    
 106.00  33.00     0.29943    
 106.00  34.00     0.26770    
 106.00  35.00     0.19706    
 106.00  36.00     0.87171E-01
 106.00  37.00    -0.53935E-01
 106.00  38.00    -0.21184    
 106.00  39.00    -0.36886    
 106.00  40.00    -0.50753    
 106.00  41.00    -0.61380    
 106.00  42.00    -0.67932    
 106.00  43.00    -0.70305    
 106.00  44.00    -0.69138    
 106.00  45.00    -0.65723    
 106.00  46.00    -0.61788    
 106.00  47.00    -0.59113    
 106.00  48.00    -0.59118    
 106.00  49.00    -0.62397    
 106.00  50.00    -0.68382    
 106.00  51.00    -0.75230    
 106.00  52.00    -0.79987    
 106.00  53.00    -0.79162    
 106.00  54.00    -0.69452    
 106.00  55.00    -0.48678    
 106.00  56.00    -0.16548    
 106.00  57.00     0.24947    
 106.00  58.00     0.71671    
 106.00  59.00      1.1801    
 106.00  60.00      1.5794    
 106.00  61.00      1.8638    
 106.00  62.00      2.0028    
 106.00  63.00      1.9924    
 106.00  64.00      1.8554    
 106.00  65.00      1.6345    
 106.00  66.00      1.3801    
 106.00  67.00      1.1367    
 106.00  68.00     0.93240    
 106.00  69.00     0.77298    
 106.00  70.00     0.64282    
 106.00  71.00     0.51405    
 106.00  72.00     0.35854    
 106.00  73.00     0.15866    
 106.00  74.00    -0.83301E-01
 106.00  75.00    -0.34433    
 106.00  76.00    -0.58656    
 106.00  77.00    -0.76888    
 106.00  78.00    -0.86022    
 106.00  79.00    -0.84962    
 106.00  80.00    -0.75148    
 106.00  81.00    -0.60266    
 106.00  82.00    -0.45219    
 106.00  83.00    -0.34387    
 106.00  84.00    -0.30683    
 106.00  85.00    -0.34184    
 106.00  86.00    -0.42578    
 106.00  87.00    -0.51291    
 106.00  88.00    -0.55341    
 106.00  89.00    -0.50942    
 107.00 -89.00    -0.14719E-02
 107.00 -88.00     0.52656E-01
 107.00 -87.00     0.11123    
 107.00 -86.00     0.17480    
 107.00 -85.00     0.24479    
 107.00 -84.00     0.32358    
 107.00 -83.00     0.40634    
 107.00 -82.00     0.48548    
 107.00 -81.00     0.54883    
 107.00 -80.00     0.58451    
 107.00 -79.00     0.58470    
 107.00 -78.00     0.54624    
 107.00 -77.00     0.47350    
 107.00 -76.00     0.37868    
 107.00 -75.00     0.27594    
 107.00 -74.00     0.17962    
 107.00 -73.00     0.10213    
 107.00 -72.00     0.48707E-01
 107.00 -71.00     0.19983E-01
 107.00 -70.00     0.12937E-01
 107.00 -69.00     0.22661E-01
 107.00 -68.00     0.45669E-01
 107.00 -67.00     0.80729E-01
 107.00 -66.00     0.12927    
 107.00 -65.00     0.19329    
 107.00 -64.00     0.27080    
 107.00 -63.00     0.35703    
 107.00 -62.00     0.44035    
 107.00 -61.00     0.50542    
 107.00 -60.00     0.53578    
 107.00 -59.00     0.51945    
 107.00 -58.00     0.45298    
 107.00 -57.00     0.34431    
 107.00 -56.00     0.21269    
 107.00 -55.00     0.85284E-01
 107.00 -54.00    -0.89935E-02
 107.00 -53.00    -0.46590E-01
 107.00 -52.00    -0.15736E-01
 107.00 -51.00     0.79604E-01
 107.00 -50.00     0.21999    
 107.00 -49.00     0.37433    
 107.00 -48.00     0.50700    
 107.00 -47.00     0.58575    
 107.00 -46.00     0.58944    
 107.00 -45.00     0.51250    
 107.00 -44.00     0.36589    
 107.00 -43.00     0.17393    
 107.00 -42.00    -0.31597E-01
 107.00 -41.00    -0.21888    
 107.00 -40.00    -0.36288    
 107.00 -39.00    -0.44994    
 107.00 -38.00    -0.47924    
 107.00 -37.00    -0.46118    
 107.00 -36.00    -0.41334    
 107.00 -35.00    -0.35535    
 107.00 -34.00    -0.30410    
 107.00 -33.00    -0.27042    
 107.00 -32.00    -0.25786    
 107.00 -31.00    -0.26343    
 107.00 -30.00    -0.27975    
 107.00 -29.00    -0.29780    
 107.00 -28.00    -0.30923    
 107.00 -27.00    -0.30790    
 107.00 -26.00    -0.29035    
 107.00 -25.00    -0.25548    
 107.00 -24.00    -0.20397    
 107.00 -23.00    -0.13789    
 107.00 -22.00    -0.60743E-01
 107.00 -21.00     0.22121E-01
 107.00 -20.00     0.10308    
 107.00 -19.00     0.17238    
 107.00 -18.00     0.21923    
 107.00 -17.00     0.23406    
 107.00 -16.00     0.21148    
 107.00 -15.00     0.15336    
 107.00 -14.00     0.70637E-01
 107.00 -13.00    -0.16754E-01
 107.00 -12.00    -0.82692E-01
 107.00 -11.00    -0.10013    
 107.00 -10.00    -0.47912E-01
 107.00  -9.00     0.82470E-01
 107.00  -8.00     0.28212    
 107.00  -7.00     0.52361    
 107.00  -6.00     0.76451    
 107.00  -5.00     0.95523    
 107.00  -4.00      1.0499    
 107.00  -3.00      1.0176    
 107.00  -2.00     0.85158    
 107.00  -1.00     0.57304    
 107.00   0.00     0.22896    
 107.00   1.00    -0.11680    
 107.00   2.00    -0.39709    
 107.00   3.00    -0.55662    
 107.00   4.00    -0.56532    
 107.00   5.00    -0.42619    
 107.00   6.00    -0.17562    
 107.00   7.00     0.12421    
 107.00   8.00     0.39917    
 107.00   9.00     0.58017    
 107.00  10.00     0.61894    
 107.00  11.00     0.49905    
 107.00  12.00     0.23926    
 107.00  13.00    -0.11128    
 107.00  14.00    -0.48477    
 107.00  15.00    -0.81045    
 107.00  16.00     -1.0301    
 107.00  17.00     -1.1100    
 107.00  18.00     -1.0463    
 107.00  19.00    -0.86326    
 107.00  20.00    -0.60528    
 107.00  21.00    -0.32519    
 107.00  22.00    -0.71888E-01
 107.00  23.00     0.11953    
 107.00  24.00     0.23305    
 107.00  25.00     0.27189    
 107.00  26.00     0.25415    
 107.00  27.00     0.20567    
 107.00  28.00     0.15246    
 107.00  29.00     0.11448    
 107.00  30.00     0.10210    
 107.00  31.00     0.11553    
 107.00  32.00     0.14667    
 107.00  33.00     0.18249    
 107.00  34.00     0.20869    
 107.00  35.00     0.21282    
 107.00  36.00     0.18653    
 107.00  37.00     0.12664    
 107.00  38.00     0.35457E-01
 107.00  39.00    -0.79663E-01
 107.00  40.00    -0.20730    
 107.00  41.00    -0.33361    
 107.00  42.00    -0.44452    
 107.00  43.00    -0.52854    
 107.00  44.00    -0.57926    
 107.00  45.00    -0.59732    
 107.00  46.00    -0.59104    
 107.00  47.00    -0.57404    
 107.00  48.00    -0.56189    
 107.00  49.00    -0.56629    
 107.00  50.00    -0.59016    
 107.00  51.00    -0.62396    
 107.00  52.00    -0.64542    
 107.00  53.00    -0.62372    
 107.00  54.00    -0.52660    
 107.00  55.00    -0.33017    
 107.00  56.00    -0.27825E-01
 107.00  57.00     0.36437    
 107.00  58.00     0.80789    
 107.00  59.00      1.2476    
 107.00  60.00      1.6230    
 107.00  61.00      1.8821    
 107.00  62.00      1.9930    
 107.00  63.00      1.9518    
 107.00  64.00      1.7823    
 107.00  65.00      1.5298    
 107.00  66.00      1.2481    
 107.00  67.00     0.98500    
 107.00  68.00     0.77089    
 107.00  69.00     0.61243    
 107.00  70.00     0.49293    
 107.00  71.00     0.38218    
 107.00  72.00     0.24872    
 107.00  73.00     0.71694E-01
 107.00  74.00    -0.14916    
 107.00  75.00    -0.39241    
 107.00  76.00    -0.62074    
 107.00  77.00    -0.79229    
 107.00  78.00    -0.87499    
 107.00  79.00    -0.85709    
 107.00  80.00    -0.75212    
 107.00  81.00    -0.59703    
 107.00  82.00    -0.44120    
 107.00  83.00    -0.32918    
 107.00  84.00    -0.29038    
 107.00  85.00    -0.32552    
 107.00  86.00    -0.41162    
 107.00  87.00    -0.50226    
 107.00  88.00    -0.54678    
 107.00  89.00    -0.50652    
 108.00 -89.00    -0.16334E-02
 108.00 -88.00     0.52240E-01
 108.00 -87.00     0.10996    
 108.00 -86.00     0.17192    
 108.00 -85.00     0.23978    
 108.00 -84.00     0.31616    
 108.00 -83.00     0.39707    
 108.00 -82.00     0.47607    
 108.00 -81.00     0.54089    
 108.00 -80.00     0.57961    
 108.00 -79.00     0.58327    
 108.00 -78.00     0.54749    
 108.00 -77.00     0.47502    
 108.00 -76.00     0.37659    
 108.00 -75.00     0.26577    
 108.00 -74.00     0.15784    
 108.00 -73.00     0.67144E-01
 108.00 -72.00     0.18979E-02
 108.00 -71.00    -0.34025E-01
 108.00 -70.00    -0.40553E-01
 108.00 -69.00    -0.20927E-01
 108.00 -68.00     0.21614E-01
 108.00 -67.00     0.84267E-01
 108.00 -66.00     0.16546    
 108.00 -65.00     0.26335    
 108.00 -64.00     0.37189    
 108.00 -63.00     0.48298    
 108.00 -62.00     0.58262    
 108.00 -61.00     0.65459    
 108.00 -60.00     0.68280    
 108.00 -59.00     0.65664    
 108.00 -58.00     0.57456    
 108.00 -57.00     0.44669    
 108.00 -56.00     0.29429    
 108.00 -55.00     0.14657    
 108.00 -54.00     0.34231E-01
 108.00 -53.00    -0.17535E-01
 108.00 -52.00     0.44835E-02
 108.00 -51.00     0.97453E-01
 108.00 -50.00     0.24233    
 108.00 -49.00     0.40754    
 108.00 -48.00     0.55625    
 108.00 -47.00     0.65385    
 108.00 -46.00     0.67627    
 108.00 -45.00     0.61490    
 108.00 -44.00     0.47799    
 108.00 -43.00     0.28816    
 108.00 -42.00     0.76632E-01
 108.00 -41.00    -0.12395    
 108.00 -40.00    -0.28674    
 108.00 -39.00    -0.39575    
 108.00 -38.00    -0.44777    
 108.00 -37.00    -0.45131    
 108.00 -36.00    -0.42282    
 108.00 -35.00    -0.38165    
 108.00 -34.00    -0.34504    
 108.00 -33.00    -0.32447    
 108.00 -32.00    -0.32403    
 108.00 -31.00    -0.34088    
 108.00 -30.00    -0.36725    
 108.00 -29.00    -0.39314    
 108.00 -28.00    -0.40892    
 108.00 -27.00    -0.40706    
 108.00 -26.00    -0.38291    
 108.00 -25.00    -0.33468    
 108.00 -24.00    -0.26303    
 108.00 -23.00    -0.17077    
 108.00 -22.00    -0.62930E-01
 108.00 -21.00     0.52907E-01
 108.00 -20.00     0.16637    
 108.00 -19.00     0.26471    
 108.00 -18.00     0.33434    
 108.00 -17.00     0.36350    
 108.00 -16.00     0.34576    
 108.00 -15.00     0.28332    
 108.00 -14.00     0.18908    
 108.00 -13.00     0.86247E-01
 108.00 -12.00     0.51097E-02
 108.00 -11.00    -0.23074E-01
 108.00 -10.00     0.26240E-01
 108.00  -9.00     0.16335    
 108.00  -8.00     0.37905    
 108.00  -7.00     0.64352    
 108.00  -6.00     0.91023    
 108.00  -5.00      1.1247    
 108.00  -4.00      1.2364    
 108.00  -3.00      1.2108    
 108.00  -2.00      1.0395    
 108.00  -1.00     0.74373    
 108.00   0.00     0.37243    
 108.00   1.00    -0.75761E-02
 108.00   2.00    -0.32572    
 108.00   3.00    -0.52354    
 108.00   4.00    -0.56823    
 108.00   5.00    -0.46061    
 108.00   6.00    -0.23522    
 108.00   7.00     0.47521E-01
 108.00   8.00     0.31526    
 108.00   9.00     0.50044    
 108.00  10.00     0.55565    
 108.00  11.00     0.46398    
 108.00  12.00     0.24189    
 108.00  13.00    -0.65768E-01
 108.00  14.00    -0.39715    
 108.00  15.00    -0.68807    
 108.00  16.00    -0.88635    
 108.00  17.00    -0.96222    
 108.00  18.00    -0.91288    
 108.00  19.00    -0.76034    
 108.00  20.00    -0.54400    
 108.00  21.00    -0.31006    
 108.00  22.00    -0.10088    
 108.00  23.00     0.53326E-01
 108.00  24.00     0.13882    
 108.00  25.00     0.15828    
 108.00  26.00     0.12723    
 108.00  27.00     0.68369E-01
 108.00  28.00     0.55744E-02
 108.00  29.00    -0.40989E-01
 108.00  30.00    -0.57984E-01
 108.00  31.00    -0.40065E-01
 108.00  32.00     0.10463E-01
 108.00  33.00     0.84919E-01
 108.00  34.00     0.16997    
 108.00  35.00     0.24958    
 108.00  36.00     0.30719    
 108.00  37.00     0.32818    
 108.00  38.00     0.30246    
 108.00  39.00     0.22698    
 108.00  40.00     0.10717    
 108.00  41.00    -0.43086E-01
 108.00  42.00    -0.20348    
 108.00  43.00    -0.35152    
 108.00  44.00    -0.46747    
 108.00  45.00    -0.53935    
 108.00  46.00    -0.56629    
 108.00  47.00    -0.55794    
 108.00  48.00    -0.53160    
 108.00  49.00    -0.50537    
 108.00  50.00    -0.49149    
 108.00  51.00    -0.48995    
 108.00  52.00    -0.48632    
 108.00  53.00    -0.45414    
 108.00  54.00    -0.36195    
 108.00  55.00    -0.18341    
 108.00  56.00     0.92365E-01
 108.00  57.00     0.45396    
 108.00  58.00     0.86654    
 108.00  59.00      1.2769    
 108.00  60.00      1.6248    
 108.00  61.00      1.8573    
 108.00  62.00      1.9415    
 108.00  63.00      1.8729    
 108.00  64.00      1.6760    
 108.00  65.00      1.3979    
 108.00  66.00      1.0951    
 108.00  67.00     0.81787    
 108.00  68.00     0.59861    
 108.00  69.00     0.44455    
 108.00  70.00     0.33799    
 108.00  71.00     0.24656    
 108.00  72.00     0.13581    
 108.00  73.00    -0.18014E-01
 108.00  74.00    -0.21752    
 108.00  75.00    -0.44268    
 108.00  76.00    -0.65667    
 108.00  77.00    -0.81696    
 108.00  78.00    -0.89055    
 108.00  79.00    -0.86498    
 108.00  80.00    -0.75299    
 108.00  81.00    -0.59158    
 108.00  82.00    -0.43044    
 108.00  83.00    -0.31479    
 108.00  84.00    -0.27425    
 108.00  85.00    -0.30955    
 108.00  86.00    -0.39771    
 108.00  87.00    -0.49174    
 108.00  88.00    -0.54018    
 108.00  89.00    -0.50360    
 109.00 -89.00    -0.18127E-02
 109.00 -88.00     0.51776E-01
 109.00 -87.00     0.10857    
 109.00 -86.00     0.16878    
 109.00 -85.00     0.23429    
 109.00 -84.00     0.30793    
 109.00 -83.00     0.38660    
 109.00 -82.00     0.46502    
 109.00 -81.00     0.53098    
 109.00 -80.00     0.57263    
 109.00 -79.00     0.57990    
 109.00 -78.00     0.54725    
 109.00 -77.00     0.47575    
 109.00 -76.00     0.37454    
 109.00 -75.00     0.25644    
 109.00 -74.00     0.13754    
 109.00 -73.00     0.33970E-01
 109.00 -72.00    -0.43090E-01
 109.00 -71.00    -0.86483E-01
 109.00 -70.00    -0.93037E-01
 109.00 -69.00    -0.64245E-01
 109.00 -68.00    -0.30593E-02
 109.00 -67.00     0.86166E-01
 109.00 -66.00     0.19882    
 109.00 -65.00     0.32907    
 109.00 -64.00     0.46713    
 109.00 -63.00     0.60140    
 109.00 -62.00     0.71592    
 109.00 -61.00     0.79387    
 109.00 -60.00     0.81995    
 109.00 -59.00     0.78516    
 109.00 -58.00     0.68991    
 109.00 -57.00     0.54627    
 109.00 -56.00     0.37698    
 109.00 -55.00     0.21240    
 109.00 -54.00     0.84063E-01
 109.00 -53.00     0.17923E-01
 109.00 -52.00     0.28095E-01
 109.00 -51.00     0.11287    
 109.00 -50.00     0.25422    
 109.00 -49.00     0.42136    
 109.00 -48.00     0.57775    
 109.00 -47.00     0.68818    
 109.00 -46.00     0.72703    
 109.00 -45.00     0.68345    
 109.00 -44.00     0.56295    
 109.00 -43.00     0.38552    
 109.00 -42.00     0.18018    
 109.00 -41.00    -0.21733E-01
 109.00 -40.00    -0.19369    
 109.00 -39.00    -0.31901    
 109.00 -38.00    -0.39298    
 109.00 -37.00    -0.42211    
 109.00 -36.00    -0.42066    
 109.00 -35.00    -0.40588    
 109.00 -34.00    -0.39317    
 109.00 -33.00    -0.39260    
 109.00 -32.00    -0.40729    
 109.00 -31.00    -0.43391    
 109.00 -30.00    -0.46460    
 109.00 -29.00    -0.48964    
 109.00 -28.00    -0.49993    
 109.00 -27.00    -0.48861    
 109.00 -26.00    -0.45169    
 109.00 -25.00    -0.38788    
 109.00 -24.00    -0.29812    
 109.00 -23.00    -0.18536    
 109.00 -22.00    -0.54740E-01
 109.00 -21.00     0.85843E-01
 109.00 -20.00     0.22528    
 109.00 -19.00     0.34953    
 109.00 -18.00     0.44318    
 109.00 -17.00     0.49235    
 109.00 -16.00     0.48860    
 109.00 -15.00     0.43278    
 109.00 -14.00     0.33747    
 109.00 -13.00     0.22691    
 109.00 -12.00     0.13366    
 109.00 -11.00     0.92162E-01
 109.00 -10.00     0.13044    
 109.00  -9.00     0.26182    
 109.00  -8.00     0.47902    
 109.00  -7.00     0.75262    
 109.00  -6.00      1.0350    
 109.00  -5.00      1.2691    
 109.00  -4.00      1.4013    
 109.00  -3.00      1.3935    
 109.00  -2.00      1.2343    
 109.00  -1.00     0.94259    
 109.00   0.00     0.56606    
 109.00   1.00     0.17111    
 109.00   2.00    -0.17112    
 109.00   3.00    -0.40073    
 109.00   4.00    -0.48265    
 109.00   5.00    -0.41450    
 109.00   6.00    -0.22678    
 109.00   7.00     0.24711E-01
 109.00   8.00     0.27230    
 109.00   9.00     0.45234    
 109.00  10.00     0.51965    
 109.00  11.00     0.45700    
 109.00  12.00     0.27751    
 109.00  13.00     0.19831E-01
 109.00  14.00    -0.26238    
 109.00  15.00    -0.51368    
 109.00  16.00    -0.68934    
 109.00  17.00    -0.76421    
 109.00  18.00    -0.73608    
 109.00  19.00    -0.62343    
 109.00  20.00    -0.45880    
 109.00  21.00    -0.27988    
 109.00  22.00    -0.12089    
 109.00  23.00    -0.61247E-02
 109.00  24.00     0.53197E-01
 109.00  25.00     0.58726E-01
 109.00  26.00     0.22313E-01
 109.00  27.00    -0.37959E-01
 109.00  28.00    -0.10184    
 109.00  29.00    -0.15029    
 109.00  30.00    -0.16796    
 109.00  31.00    -0.14481    
 109.00  32.00    -0.77371E-01
 109.00  33.00     0.30423E-01
 109.00  34.00     0.16691    
 109.00  35.00     0.31331    
 109.00  36.00     0.44575    
 109.00  37.00     0.53893    
 109.00  38.00     0.57108    
 109.00  39.00     0.52914    
 109.00  40.00     0.41283    
 109.00  41.00     0.23614    
 109.00  42.00     0.25455E-01
 109.00  43.00    -0.18597    
 109.00  44.00    -0.36546    
 109.00  45.00    -0.48881    
 109.00  46.00    -0.54639    
 109.00  47.00    -0.54427    
 109.00  48.00    -0.50180    
 109.00  49.00    -0.44386    
 109.00  50.00    -0.39220    
 109.00  51.00    -0.35656    
 109.00  52.00    -0.33043    
 109.00  53.00    -0.29169    
 109.00  54.00    -0.20954    
 109.00  55.00    -0.54901E-01
 109.00  56.00     0.18789    
 109.00  57.00     0.51265    
 109.00  58.00     0.88889    
 109.00  59.00      1.2659    
 109.00  60.00      1.5844    
 109.00  61.00      1.7906    
 109.00  62.00      1.8507    
 109.00  63.00      1.7592    
 109.00  64.00      1.5409    
 109.00  65.00      1.2438    
 109.00  66.00     0.92620    
 109.00  67.00     0.64057    
 109.00  68.00     0.42065    
 109.00  69.00     0.27407    
 109.00  70.00     0.18222    
 109.00  71.00     0.11082    
 109.00  72.00     0.22766E-01
 109.00  73.00    -0.10819    
 109.00  74.00    -0.28671    
 109.00  75.00    -0.49399    
 109.00  76.00    -0.69360    
 109.00  77.00    -0.84244    
 109.00  78.00    -0.90665    
 109.00  79.00    -0.87318    
 109.00  80.00    -0.75405    
 109.00  81.00    -0.58633    
 109.00  82.00    -0.41995    
 109.00  83.00    -0.30071    
 109.00  84.00    -0.25846    
 109.00  85.00    -0.29393    
 109.00  86.00    -0.38406    
 109.00  87.00    -0.48135    
 109.00  88.00    -0.53361    
 109.00  89.00    -0.50066    
 110.00 -89.00    -0.20099E-02
 110.00 -88.00     0.51266E-01
 110.00 -87.00     0.10707    
 110.00 -86.00     0.16538    
 110.00 -85.00     0.22834    
 110.00 -84.00     0.29888    
 110.00 -83.00     0.37494    
 110.00 -82.00     0.45230    
 110.00 -81.00     0.51909    
 110.00 -80.00     0.56352    
 110.00 -79.00     0.57459    
 110.00 -78.00     0.54558    
 110.00 -77.00     0.47586    
 110.00 -76.00     0.37284    
 110.00 -75.00     0.24846    
 110.00 -74.00     0.11942    
 110.00 -73.00     0.35137E-02
 110.00 -72.00    -0.85210E-01
 110.00 -71.00    -0.13631    
 110.00 -70.00    -0.14355    
 110.00 -69.00    -0.10662    
 110.00 -68.00    -0.28147E-01
 110.00 -67.00     0.85996E-01
 110.00 -66.00     0.22814    
 110.00 -65.00     0.38848    
 110.00 -64.00     0.55369    
 110.00 -63.00     0.70876    
 110.00 -62.00     0.83608    
 110.00 -61.00     0.91868    
 110.00 -60.00     0.94241    
 110.00 -59.00     0.90018    
 110.00 -58.00     0.79445    
 110.00 -57.00     0.63896    
 110.00 -56.00     0.45739    
 110.00 -55.00     0.28032    
 110.00 -54.00     0.13912    
 110.00 -53.00     0.59558E-01
 110.00 -52.00     0.56005E-01
 110.00 -51.00     0.12773    
 110.00 -50.00     0.25830    
 110.00 -49.00     0.41882    
 110.00 -48.00     0.57455    
 110.00 -47.00     0.69142    
 110.00 -46.00     0.74377    
 110.00 -45.00     0.71943    
 110.00 -44.00     0.62137    
 110.00 -43.00     0.46620    
 110.00 -42.00     0.27929    
 110.00 -41.00     0.88673E-01
 110.00 -40.00    -0.81481E-01
 110.00 -39.00    -0.21552    
 110.00 -38.00    -0.30825    
 110.00 -37.00    -0.36428    
 110.00 -36.00    -0.39483    
 110.00 -35.00    -0.41344    
 110.00 -34.00    -0.43176    
 110.00 -33.00    -0.45652    
 110.00 -32.00    -0.48847    
 110.00 -31.00    -0.52315    
 110.00 -30.00    -0.55296    
 110.00 -29.00    -0.56969    
 110.00 -28.00    -0.56662    
 110.00 -27.00    -0.53957    
 110.00 -26.00    -0.48700    
 110.00 -25.00    -0.40930    
 110.00 -24.00    -0.30799    
 110.00 -23.00    -0.18544    
 110.00 -22.00    -0.45326E-01
 110.00 -21.00     0.10625    
 110.00 -20.00     0.25970    
 110.00 -19.00     0.40165    
 110.00 -18.00     0.51611    
 110.00 -17.00     0.58740    
 110.00 -16.00     0.60440    
 110.00 -15.00     0.56493    
 110.00 -14.00     0.47909    
 110.00 -13.00     0.36975    
 110.00 -12.00     0.26965    
 110.00 -11.00     0.21506    
 110.00 -10.00     0.23707    
 110.00  -9.00     0.35277    
 110.00  -8.00     0.55855    
 110.00  -7.00     0.82788    
 110.00  -6.00      1.1147    
 110.00  -5.00      1.3620    
 110.00  -4.00      1.5145    
 110.00  -3.00      1.5317    
 110.00  -2.00      1.3983    
 110.00  -1.00      1.1296    
 110.00   0.00     0.76923    
 110.00   1.00     0.38057    
 110.00   2.00     0.32575E-01
 110.00   3.00    -0.21552    
 110.00   4.00    -0.32746    
 110.00   5.00    -0.29773    
 110.00   6.00    -0.15185    
 110.00   7.00     0.60700E-01
 110.00   8.00     0.27893    
 110.00   9.00     0.44501    
 110.00  10.00     0.51741    
 110.00  11.00     0.47928    
 110.00  12.00     0.34035    
 110.00  13.00     0.13236    
 110.00  14.00    -0.10031    
 110.00  15.00    -0.31206    
 110.00  16.00    -0.46650    
 110.00  17.00    -0.54343    
 110.00  18.00    -0.54101    
 110.00  19.00    -0.47342    
 110.00  20.00    -0.36517    
 110.00  21.00    -0.24419    
 110.00  22.00    -0.13542    
 110.00  23.00    -0.56580E-01
 110.00  24.00    -0.16271E-01
 110.00  25.00    -0.14419E-01
 110.00  26.00    -0.43962E-01
 110.00  27.00    -0.92968E-01
 110.00  28.00    -0.14655    
 110.00  29.00    -0.18844    
 110.00  30.00    -0.20259    
 110.00  31.00    -0.17509    
 110.00  32.00    -0.96872E-01
 110.00  33.00     0.33420E-01
 110.00  34.00     0.20690    
 110.00  35.00     0.40356    
 110.00  36.00     0.59399    
 110.00  37.00     0.74396    
 110.00  38.00     0.82144    
 110.00  39.00     0.80436    
 110.00  40.00     0.68711    
 110.00  41.00     0.48360    
 110.00  42.00     0.22554    
 110.00  43.00    -0.44068E-01
 110.00  44.00    -0.28084    
 110.00  45.00    -0.44951    
 110.00  46.00    -0.53256    
 110.00  47.00    -0.53312    
 110.00  48.00    -0.47285    
 110.00  49.00    -0.38338    
 110.00  50.00    -0.29573    
 110.00  51.00    -0.22907    
 110.00  52.00    -0.18446    
 110.00  53.00    -0.14382    
 110.00  54.00    -0.76740E-01
 110.00  55.00     0.48838E-01
 110.00  56.00     0.25366    
 110.00  57.00     0.53716    
 110.00  58.00     0.87359    
 110.00  59.00      1.2152    
 110.00  60.00      1.5039    
 110.00  61.00      1.6856    
 110.00  62.00      1.7251    
 110.00  63.00      1.6160    
 110.00  64.00      1.3825    
 110.00  65.00      1.0732    
 110.00  66.00     0.74731    
 110.00  67.00     0.45881    
 110.00  68.00     0.24241    
 110.00  69.00     0.10592    
 110.00  70.00     0.29954E-01
 110.00  71.00    -0.21402E-01
 110.00  72.00    -0.87445E-01
 110.00  73.00    -0.19654    
 110.00  74.00    -0.35504    
 110.00  75.00    -0.54517    
 110.00  76.00    -0.73077    
 110.00  77.00    -0.86827    
 110.00  78.00    -0.92305    
 110.00  79.00    -0.88157    
 110.00  80.00    -0.75526    
 110.00  81.00    -0.58127    
 110.00  82.00    -0.40972    
 110.00  83.00    -0.28697    
 110.00  84.00    -0.24302    
 110.00  85.00    -0.27868    
 110.00  86.00    -0.37069    
 110.00  87.00    -0.47111    
 110.00  88.00    -0.52707    
 110.00  89.00    -0.49770    
 111.00 -89.00    -0.22248E-02
 111.00 -88.00     0.50708E-01
 111.00 -87.00     0.10546    
 111.00 -86.00     0.16174    
 111.00 -85.00     0.22193    
 111.00 -84.00     0.28903    
 111.00 -83.00     0.36212    
 111.00 -82.00     0.43792    
 111.00 -81.00     0.50519    
 111.00 -80.00     0.55228    
 111.00 -79.00     0.56734    
 111.00 -78.00     0.54254    
 111.00 -77.00     0.47547    
 111.00 -76.00     0.37174    
 111.00 -75.00     0.24227    
 111.00 -74.00     0.10414    
 111.00 -73.00    -0.23386E-01
 111.00 -72.00    -0.12349    
 111.00 -71.00    -0.18247    
 111.00 -70.00    -0.19117    
 111.00 -69.00    -0.14737    
 111.00 -68.00    -0.53374E-01
 111.00 -67.00     0.83489E-01
 111.00 -66.00     0.25255    
 111.00 -65.00     0.44004    
 111.00 -64.00     0.62934    
 111.00 -63.00     0.80221    
 111.00 -62.00     0.93976    
 111.00 -61.00      1.0253    
 111.00 -60.00      1.0462    
 111.00 -59.00     0.99758    
 111.00 -58.00     0.88411    
 111.00 -57.00     0.72093    
 111.00 -56.00     0.53211    
 111.00 -55.00     0.34761    
 111.00 -54.00     0.19758    
 111.00 -53.00     0.10665    
 111.00 -52.00     0.88741E-01
 111.00 -51.00     0.14385    
 111.00 -50.00     0.25747    
 111.00 -49.00     0.40363    
 111.00 -48.00     0.55073    
 111.00 -47.00     0.66748    
 111.00 -46.00     0.72965    
 111.00 -45.00     0.72481    
 111.00 -44.00     0.65373    
 111.00 -43.00     0.52924    
 111.00 -42.00     0.37186    
 111.00 -41.00     0.20461    
 111.00 -40.00     0.47465E-01
 111.00 -39.00    -0.86573E-01
 111.00 -38.00    -0.19290    
 111.00 -37.00    -0.27450    
 111.00 -36.00    -0.33904    
 111.00 -35.00    -0.39515    
 111.00 -34.00    -0.44907    
 111.00 -33.00    -0.50264    
 111.00 -32.00    -0.55300    
 111.00 -31.00    -0.59407    
 111.00 -30.00    -0.61879    
 111.00 -29.00    -0.62154    
 111.00 -28.00    -0.59957    
 111.00 -27.00    -0.55325    
 111.00 -26.00    -0.48512    
 111.00 -25.00    -0.39829    
 111.00 -24.00    -0.29509    
 111.00 -23.00    -0.17665    
 111.00 -22.00    -0.43707E-01
 111.00 -21.00     0.10149    
 111.00 -20.00     0.25312    
 111.00 -19.00     0.40049    
 111.00 -18.00     0.52851    
 111.00 -17.00     0.62029    
 111.00 -16.00     0.66165    
 111.00 -15.00     0.64624    
 111.00 -14.00     0.57970    
 111.00 -13.00     0.48134    
 111.00 -12.00     0.38196    
 111.00 -11.00     0.31793    
 111.00 -10.00     0.32252    
 111.00  -9.00     0.41658    
 111.00  -8.00     0.60113    
 111.00  -7.00     0.85422    
 111.00  -6.00      1.1335    
 111.00  -5.00      1.3845    
 111.00  -4.00      1.5522    
 111.00  -3.00      1.5948    
 111.00  -2.00      1.4939    
 111.00  -1.00      1.2606    
 111.00   0.00     0.93334    
 111.00   1.00     0.57045    
 111.00   2.00     0.23655    
 111.00   3.00    -0.11919E-01
 111.00   4.00    -0.13930    
 111.00   5.00    -0.13806    
 111.00   6.00    -0.29154E-01
 111.00   7.00     0.14451    
 111.00   8.00     0.32945    
 111.00   9.00     0.47486    
 111.00  10.00     0.54412    
 111.00  11.00     0.52192    
 111.00  12.00     0.41547    
 111.00  13.00     0.25017    
 111.00  14.00     0.61332E-01
 111.00  15.00    -0.11535    
 111.00  16.00    -0.25198    
 111.00  17.00    -0.33342    
 111.00  18.00    -0.35822    
 111.00  19.00    -0.33606    
 111.00  20.00    -0.28307    
 111.00  21.00    -0.21691    
 111.00  22.00    -0.15282    
 111.00  23.00    -0.10160    
 111.00  24.00    -0.69292E-01
 111.00  25.00    -0.57872E-01
 111.00  26.00    -0.66015E-01
 111.00  27.00    -0.89328E-01
 111.00  28.00    -0.11997    
 111.00  29.00    -0.14619    
 111.00  30.00    -0.15277    
 111.00  31.00    -0.12302    
 111.00  32.00    -0.42547E-01
 111.00  33.00     0.95759E-01
 111.00  34.00     0.28713    
 111.00  35.00     0.51237    
 111.00  36.00     0.73893    
 111.00  37.00     0.92605    
 111.00  38.00      1.0335    
 111.00  39.00      1.0316    
 111.00  40.00     0.90993    
 111.00  41.00     0.68183    
 111.00  42.00     0.38316    
 111.00  43.00     0.64902E-01
 111.00  44.00    -0.21874    
 111.00  45.00    -0.42324    
 111.00  46.00    -0.52449    
 111.00  47.00    -0.52342    
 111.00  48.00    -0.44413    
 111.00  49.00    -0.32464    
 111.00  50.00    -0.20451    
 111.00  51.00    -0.11155    
 111.00  52.00    -0.53638E-01
 111.00  53.00    -0.16218E-01
 111.00  54.00     0.31123E-01
 111.00  55.00     0.12358    
 111.00  56.00     0.28709    
 111.00  57.00     0.52680    
 111.00  58.00     0.82186    
 111.00  59.00      1.1278    
 111.00  60.00      1.3879    
 111.00  61.00      1.5477    
 111.00  62.00      1.5709    
 111.00  63.00      1.4498    
 111.00  64.00      1.2076    
 111.00  65.00     0.89268    
 111.00  66.00     0.56478    
 111.00  67.00     0.27856    
 111.00  68.00     0.69372E-01
 111.00  69.00    -0.54999E-01
 111.00  70.00    -0.11454    
 111.00  71.00    -0.14652    
 111.00  72.00    -0.19193    
 111.00  73.00    -0.28081    
 111.00  74.00    -0.42086    
 111.00  75.00    -0.59508    
 111.00  76.00    -0.76741    
 111.00  77.00    -0.89397    
 111.00  78.00    -0.93949    
 111.00  79.00    -0.89003    
 111.00  80.00    -0.75659    
 111.00  81.00    -0.57640    
 111.00  82.00    -0.39978    
 111.00  83.00    -0.27358    
 111.00  84.00    -0.22795    
 111.00  85.00    -0.26382    
 111.00  86.00    -0.35760    
 111.00  87.00    -0.46102    
 111.00  88.00    -0.52057    
 111.00  89.00    -0.49471    
 112.00 -89.00    -0.24574E-02
 112.00 -88.00     0.50104E-01
 112.00 -87.00     0.10375    
 112.00 -86.00     0.15786    
 112.00 -85.00     0.21506    
 112.00 -84.00     0.27839    
 112.00 -83.00     0.34813    
 112.00 -82.00     0.42188    
 112.00 -81.00     0.48926    
 112.00 -80.00     0.53887    
 112.00 -79.00     0.55815    
 112.00 -78.00     0.53818    
 112.00 -77.00     0.47470    
 112.00 -76.00     0.37148    
 112.00 -75.00     0.23826    
 112.00 -74.00     0.92252E-01
 112.00 -73.00    -0.45985E-01
 112.00 -72.00    -0.15704    
 112.00 -71.00    -0.22405    
 112.00 -70.00    -0.23502    
 112.00 -69.00    -0.18583    
 112.00 -68.00    -0.78404E-01
 112.00 -67.00     0.78547E-01
 112.00 -66.00     0.27144    
 112.00 -65.00     0.48268    
 112.00 -64.00     0.69246    
 112.00 -63.00     0.87970    
 112.00 -62.00      1.0246    
 112.00 -61.00      1.1109    
 112.00 -60.00      1.1283    
 112.00 -59.00      1.0743    
 112.00 -58.00     0.95566    
 112.00 -57.00     0.78893    
 112.00 -56.00     0.59803    
 112.00 -55.00     0.41148    
 112.00 -54.00     0.25731    
 112.00 -53.00     0.15802    
 112.00 -52.00     0.12637    
 112.00 -51.00     0.16267    
 112.00 -50.00     0.25457    
 112.00 -49.00     0.37977    
 112.00 -48.00     0.51091    
 112.00 -47.00     0.62089    
 112.00 -46.00     0.68838    
 112.00 -45.00     0.70171    
 112.00 -44.00     0.66003    
 112.00 -43.00     0.57221    
 112.00 -42.00     0.45318    
 112.00 -41.00     0.31963    
 112.00 -40.00     0.18583    
 112.00 -39.00     0.60733E-01
 112.00 -38.00    -0.52714E-01
 112.00 -37.00    -0.15632    
 112.00 -36.00    -0.25399    
 112.00 -35.00    -0.34869    
 112.00 -34.00    -0.44014    
 112.00 -33.00    -0.52406    
 112.00 -32.00    -0.59309    
 112.00 -31.00    -0.63906    
 112.00 -30.00    -0.65565    
 112.00 -29.00    -0.64060    
 112.00 -28.00    -0.59641    
 112.00 -27.00    -0.52943    
 112.00 -26.00    -0.44760    
 112.00 -25.00    -0.35764    
 112.00 -24.00    -0.26297    
 112.00 -23.00    -0.16296    
 112.00 -22.00    -0.54260E-01
 112.00 -21.00     0.66457E-01
 112.00 -20.00     0.19908    
 112.00 -19.00     0.33748    
 112.00 -18.00     0.46896    
 112.00 -17.00     0.57633    
 112.00 -16.00     0.64247    
 112.00 -15.00     0.65616    
 112.00 -14.00     0.61732    
 112.00 -13.00     0.53985    
 112.00 -12.00     0.45063    
 112.00 -11.00     0.38431    
 112.00 -10.00     0.37489    
 112.00  -9.00     0.44618    
 112.00  -8.00     0.60377    
 112.00  -7.00     0.83108    
 112.00  -6.00      1.0909    
 112.00  -5.00      1.3330    
 112.00  -4.00      1.5049    
 112.00  -3.00      1.5653    
 112.00  -2.00      1.4945    
 112.00  -1.00      1.2998    
 112.00   0.00      1.0149    
 112.00   1.00     0.69214    
 112.00   2.00     0.39051    
 112.00   3.00     0.16166    
 112.00   4.00     0.38473E-01
 112.00   5.00     0.28383E-01
 112.00   6.00     0.11327    
 112.00   7.00     0.25564    
 112.00   8.00     0.40911    
 112.00   9.00     0.53018    
 112.00  10.00     0.58814    
 112.00  11.00     0.57065    
 112.00  12.00     0.48412    
 112.00  13.00     0.34924    
 112.00  14.00     0.19365    
 112.00  15.00     0.44160E-01
 112.00  16.00    -0.79337E-01
 112.00  17.00    -0.16671    
 112.00  18.00    -0.21717    
 112.00  19.00    -0.23631    
 112.00  20.00    -0.23238    
 112.00  21.00    -0.21307    
 112.00  22.00    -0.18412    
 112.00  23.00    -0.14949    
 112.00  24.00    -0.11274    
 112.00  25.00    -0.78123E-01
 112.00  26.00    -0.50645E-01
 112.00  27.00    -0.34444E-01
 112.00  28.00    -0.30097E-01
 112.00  29.00    -0.32007E-01
 112.00  30.00    -0.27369E-01
 112.00  31.00     0.21114E-02
 112.00  32.00     0.75554E-01
 112.00  33.00     0.20622    
 112.00  34.00     0.39478    
 112.00  35.00     0.62507    
 112.00  36.00     0.86408    
 112.00  37.00      1.0674    
 112.00  38.00      1.1891    
 112.00  39.00      1.1934    
 112.00  40.00      1.0656    
 112.00  41.00     0.81800    
 112.00  42.00     0.48901    
 112.00  43.00     0.13533    
 112.00  44.00    -0.18148    
 112.00  45.00    -0.40980    
 112.00  46.00    -0.52054    
 112.00  47.00    -0.51327    
 112.00  48.00    -0.41440    
 112.00  49.00    -0.26769    
 112.00  50.00    -0.12009    
 112.00  51.00    -0.68564E-02
 112.00  52.00     0.58403E-01
 112.00  53.00     0.87436E-01
 112.00  54.00     0.11105    
 112.00  55.00     0.16763    
 112.00  56.00     0.28822    
 112.00  57.00     0.48351    
 112.00  58.00     0.73749    
 112.00  59.00      1.0090    
 112.00  60.00      1.2427    
 112.00  61.00      1.3842    
 112.00  62.00      1.3958    
 112.00  63.00      1.2682    
 112.00  64.00      1.0237    
 112.00  65.00     0.70946    
 112.00  66.00     0.38523    
 112.00  67.00     0.10587    
 112.00  68.00    -0.93062E-01
 112.00  69.00    -0.20393    
 112.00  70.00    -0.24718    
 112.00  71.00    -0.26112    
 112.00  72.00    -0.28794    
 112.00  73.00    -0.35888    
 112.00  74.00    -0.48258    
 112.00  75.00    -0.64256    
 112.00  76.00    -0.80277    
 112.00  77.00    -0.91907    
 112.00  78.00    -0.95570    
 112.00  79.00    -0.89842    
 112.00  80.00    -0.75797    
 112.00  81.00    -0.57170    
 112.00  82.00    -0.39015    
 112.00  83.00    -0.26057    
 112.00  84.00    -0.21327    
 112.00  85.00    -0.24937    
 112.00  86.00    -0.34481    
 112.00  87.00    -0.45110    
 112.00  88.00    -0.51412    
 112.00  89.00    -0.49171    
 113.00 -89.00    -0.27078E-02
 113.00 -88.00     0.49453E-01
 113.00 -87.00     0.10193    
 113.00 -86.00     0.15374    
 113.00 -85.00     0.20774    
 113.00 -84.00     0.26697    
 113.00 -83.00     0.33298    
 113.00 -82.00     0.40418    
 113.00 -81.00     0.47131    
 113.00 -80.00     0.52328    
 113.00 -79.00     0.54701    
 113.00 -78.00     0.53250    
 113.00 -77.00     0.47360    
 113.00 -76.00     0.37220    
 113.00 -75.00     0.23672    
 113.00 -74.00     0.84234E-01
 113.00 -73.00    -0.63651E-01
 113.00 -72.00    -0.18510    
 113.00 -71.00    -0.26023    
 113.00 -70.00    -0.27435    
 113.00 -69.00    -0.22137    
 113.00 -68.00    -0.10285    
 113.00 -67.00     0.71244E-01
 113.00 -66.00     0.28454    
 113.00 -65.00     0.51582    
 113.00 -64.00     0.74216    
 113.00 -63.00     0.94011    
 113.00 -62.00      1.0892    
 113.00 -61.00      1.1742    
 113.00 -60.00      1.1872    
 113.00 -59.00      1.1283    
 113.00 -58.00      1.0069    
 113.00 -57.00     0.84050    
 113.00 -56.00     0.65250    
 113.00 -55.00     0.46936    
 113.00 -54.00     0.31605    
 113.00 -53.00     0.21217    
 113.00 -52.00     0.16850    
 113.00 -51.00     0.18521    
 113.00 -50.00     0.25213    
 113.00 -49.00     0.35107    
 113.00 -48.00     0.45976    
 113.00 -47.00     0.55643    
 113.00 -46.00     0.62387    
 113.00 -45.00     0.65224    
 113.00 -44.00     0.63974    
 113.00 -43.00     0.59146    
 113.00 -42.00     0.51640    
 113.00 -41.00     0.42416    
 113.00 -40.00     0.32219    
 113.00 -39.00     0.21429    
 113.00 -38.00     0.10079    
 113.00 -37.00    -0.19529E-01
 113.00 -36.00    -0.14697    
 113.00 -35.00    -0.27854    
 113.00 -34.00    -0.40689    
 113.00 -33.00    -0.52089    
 113.00 -32.00    -0.60803    
 113.00 -31.00    -0.65767    
 113.00 -30.00    -0.66425    
 113.00 -29.00    -0.62926    
 113.00 -28.00    -0.56119    
 113.00 -27.00    -0.47329    
 113.00 -26.00    -0.37980    
 113.00 -25.00    -0.29181    
 113.00 -24.00    -0.21409    
 113.00 -23.00    -0.14414    
 113.00 -22.00    -0.73826E-01
 113.00 -21.00     0.68277E-02
 113.00 -20.00     0.10483    
 113.00 -19.00     0.22015    
 113.00 -18.00     0.34387    
 113.00 -17.00     0.45959    
 113.00 -16.00     0.54791    
 113.00 -15.00     0.59276    
 113.00 -14.00     0.58774    
 113.00 -13.00     0.54023    
 113.00 -12.00     0.47158    
 113.00 -11.00     0.41288    
 113.00 -10.00     0.39705    
 113.00  -9.00     0.44932    
 113.00  -8.00     0.57887    
 113.00  -7.00     0.77412    
 113.00  -6.00      1.0036    
 113.00  -5.00      1.2223    
 113.00  -4.00      1.3826    
 113.00  -3.00      1.4459    
 113.00  -2.00      1.3932    
 113.00  -1.00      1.2305    
 113.00   0.00     0.98800    
 113.00   1.00     0.71264    
 113.00   2.00     0.45703    
 113.00   3.00     0.26661    
 113.00   4.00     0.16918    
 113.00   5.00     0.16928    
 113.00   6.00     0.24885    
 113.00   7.00     0.37344    
 113.00   8.00     0.50220    
 113.00   9.00     0.59841    
 113.00  10.00     0.63783    
 113.00  11.00     0.61267    
 113.00  12.00     0.53074    
 113.00  13.00     0.41056    
 113.00  14.00     0.27445    
 113.00  15.00     0.14212    
 113.00  16.00     0.26542E-01
 113.00  17.00    -0.67008E-01
 113.00  18.00    -0.13893    
 113.00  19.00    -0.19183    
 113.00  20.00    -0.22725    
 113.00  21.00    -0.24406    
 113.00  22.00    -0.23919    
 113.00  23.00    -0.21013    
 113.00  24.00    -0.15794    
 113.00  25.00    -0.89072E-01
 113.00  26.00    -0.14861E-01
