  18.00 -64.00    -0.32540    
  18.00 -63.00    -0.54678    
  18.00 -62.00    -0.65449    
  18.00 -61.00    -0.64554    
  18.00 -60.00    -0.54530    
  18.00 -59.00    -0.39723    
  18.00 -58.00    -0.25112    
  18.00 -57.00    -0.14903    
  18.00 -56.00    -0.11541    
  18.00 -55.00    -0.15302    
  18.00 -54.00    -0.24448    
  18.00 -53.00    -0.35924    
  18.00 -52.00    -0.46369    
  18.00 -51.00    -0.53076    
  18.00 -50.00    -0.54659    
  18.00 -49.00    -0.51344    
  18.00 -48.00    -0.44749    
  18.00 -47.00    -0.37360    
  18.00 -46.00    -0.31821    
  18.00 -45.00    -0.30243    
  18.00 -44.00    -0.33803    
  18.00 -43.00    -0.42576    
  18.00 -42.00    -0.55678    
  18.00 -41.00    -0.71607    
  18.00 -40.00    -0.88621    
  18.00 -39.00     -1.0512    
  18.00 -38.00     -1.1981    
  18.00 -37.00     -1.3181    
  18.00 -36.00     -1.4059    
  18.00 -35.00     -1.4586    
  18.00 -34.00     -1.4759    
  18.00 -33.00     -1.4595    
  18.00 -32.00     -1.4148    
  18.00 -31.00     -1.3509    
  18.00 -30.00     -1.2812    
  18.00 -29.00     -1.2217    
  18.00 -28.00     -1.1889    
  18.00 -27.00     -1.1956    
  18.00 -26.00     -1.2480    
  18.00 -25.00     -1.3425    
  18.00 -24.00     -1.4660    
  18.00 -23.00     -1.5984    
  18.00 -22.00     -1.7166    
  18.00 -21.00     -1.8009    
  18.00 -20.00     -1.8396    
  18.00 -19.00     -1.8324    
  18.00 -18.00     -1.7905    
  18.00 -17.00     -1.7330    
  18.00 -16.00     -1.6817    
  18.00 -15.00     -1.6545    
  18.00 -14.00     -1.6602    
  18.00 -13.00     -1.6965    
  18.00 -12.00     -1.7509    
  18.00 -11.00     -1.8055    
  18.00 -10.00     -1.8425    
  18.00  -9.00     -1.8504    
  18.00  -8.00     -1.8278    
  18.00  -7.00     -1.7831    
  18.00  -6.00     -1.7319    
  18.00  -5.00     -1.6911    
  18.00  -4.00     -1.6729    
  18.00  -3.00     -1.6807    
  18.00  -2.00     -1.7081    
  18.00  -1.00     -1.7410    
  18.00   0.00     -1.7632    
  18.00   1.00     -1.7620    
  18.00   2.00     -1.7330    
  18.00   3.00     -1.6812    
  18.00   4.00     -1.6187    
  18.00   5.00     -1.5586    
  18.00   6.00     -1.5091    
  18.00   7.00     -1.4678    
  18.00   8.00     -1.4210    
  18.00   9.00     -1.3467    
  18.00  10.00     -1.2228    
  18.00  11.00     -1.0357    
  18.00  12.00    -0.78821    
  18.00  13.00    -0.50282    
  18.00  14.00    -0.21822    
  18.00  15.00     0.19807E-01
  18.00  16.00     0.17131    
  18.00  17.00     0.21479    
  18.00  18.00     0.15531    
  18.00  19.00     0.25146E-01
  18.00  20.00    -0.12413    
  18.00  21.00    -0.23605    
  18.00  22.00    -0.26620    
  18.00  23.00    -0.19644    
  18.00  24.00    -0.41728E-01
  18.00  25.00     0.15306    
  18.00  26.00     0.32593    
  18.00  27.00     0.41666    
  18.00  28.00     0.38617    
  18.00  29.00     0.23048    
  18.00  30.00    -0.15467E-01
  18.00  31.00    -0.28557    
  18.00  32.00    -0.50009    
  18.00  33.00    -0.58783    
  18.00  34.00    -0.50664    
  18.00  35.00    -0.25578    
  18.00  36.00     0.12327    
  18.00  37.00     0.55809    
  18.00  38.00     0.96523    
  18.00  39.00      1.2728    
  18.00  40.00      1.4390    
  18.00  41.00      1.4614    
  18.00  42.00      1.3743    
  18.00  43.00      1.2355    
  18.00  44.00      1.1072    
  18.00  45.00      1.0366    
  18.00  46.00      1.0429    
  18.00  47.00      1.1131    
  18.00  48.00      1.2099    
  18.00  49.00      1.2847    
  18.00  50.00      1.2959    
  18.00  51.00      1.2216    
  18.00  52.00      1.0666    
  18.00  53.00     0.85929    
  18.00  54.00     0.64135    
  18.00  55.00     0.45322    
  18.00  56.00     0.32099    
  18.00  57.00     0.24885    
  18.00  58.00     0.21952    
  18.00  59.00     0.20232    
  18.00  60.00     0.16533    
  18.00  61.00     0.88434E-01
  18.00  62.00    -0.28852E-01
  18.00  63.00    -0.16679    
  18.00  64.00    -0.29068    
  18.00  65.00    -0.36337    
  18.00  66.00    -0.35708    
  18.00  67.00    -0.26313    
  18.00  68.00    -0.95652E-01
  18.00  69.00     0.11395    
  18.00  70.00     0.32531    
  18.00  71.00     0.50187    
  18.00  72.00     0.62039    
  18.00  73.00     0.67815    
  18.00  74.00     0.68880    
  18.00  75.00     0.67751    
  18.00  76.00     0.66865    
  18.00  77.00     0.67989    
  18.00  78.00     0.71259    
  18.00  79.00     0.75478    
  18.00  80.00     0.78521    
  18.00  81.00     0.78337    
  18.00  82.00     0.73801    
  18.00  83.00     0.65125    
  18.00  84.00     0.53918    
  18.00  85.00     0.42609    
  18.00  86.00     0.34071    
  18.00  87.00     0.30120    
  18.00  88.00     0.31203    
  18.00  89.00     0.36433    
  19.00 -89.00     0.80803    
  19.00 -88.00     0.64617    
  19.00 -87.00     0.54837    
  19.00 -86.00     0.55194    
  19.00 -85.00     0.66204    
  19.00 -84.00     0.85299    
  19.00 -83.00      1.0716    
  19.00 -82.00      1.2546    
  19.00 -81.00      1.3417    
  19.00 -80.00      1.2985    
  19.00 -79.00      1.1245    
  19.00 -78.00     0.85395    
  19.00 -77.00     0.54905    
  19.00 -76.00     0.28017    
  19.00 -75.00     0.10954    
  19.00 -74.00     0.72298E-01
  19.00 -73.00     0.16583    
  19.00 -72.00     0.35347    
  19.00 -71.00     0.57252    
  19.00 -70.00     0.75142    
  19.00 -69.00     0.82967    
  19.00 -68.00     0.77238    
  19.00 -67.00     0.57980    
  19.00 -66.00     0.28560    
  19.00 -65.00    -0.53688E-01
  19.00 -64.00    -0.37111    
  19.00 -63.00    -0.60973    
  19.00 -62.00    -0.73451    
  19.00 -61.00    -0.73880    
  19.00 -60.00    -0.64512    
  19.00 -59.00    -0.49543    
  19.00 -58.00    -0.33999    
  19.00 -57.00    -0.22311    
  19.00 -56.00    -0.17273    
  19.00 -55.00    -0.19537    
  19.00 -54.00    -0.27678    
  19.00 -53.00    -0.38775    
  19.00 -52.00    -0.49417    
  19.00 -51.00    -0.56635    
  19.00 -50.00    -0.58653    
  19.00 -49.00    -0.55283    
  19.00 -48.00    -0.47797    
  19.00 -47.00    -0.38529    
  19.00 -46.00    -0.30174    
  19.00 -45.00    -0.25118    
  19.00 -44.00    -0.24953    
  19.00 -43.00    -0.30233    
  19.00 -42.00    -0.40484    
  19.00 -41.00    -0.54473    
  19.00 -40.00    -0.70536    
  19.00 -39.00    -0.86955    
  19.00 -38.00     -1.0220    
  19.00 -37.00     -1.1508    
  19.00 -36.00     -1.2476    
  19.00 -35.00     -1.3077    
  19.00 -34.00     -1.3295    
  19.00 -33.00     -1.3149    
  19.00 -32.00     -1.2693    
  19.00 -31.00     -1.2024    
  19.00 -30.00     -1.1273    
  19.00 -29.00     -1.0598    
  19.00 -28.00     -1.0156    
  19.00 -27.00     -1.0077    
  19.00 -26.00     -1.0426    
  19.00 -25.00     -1.1192    
  19.00 -24.00     -1.2276    
  19.00 -23.00     -1.3513    
  19.00 -22.00     -1.4709    
  19.00 -21.00     -1.5682    
  19.00 -20.00     -1.6312    
  19.00 -19.00     -1.6561    
  19.00 -18.00     -1.6483    
  19.00 -17.00     -1.6199    
  19.00 -16.00     -1.5859    
  19.00 -15.00     -1.5596    
  19.00 -14.00     -1.5490    
  19.00 -13.00     -1.5547    
  19.00 -12.00     -1.5710    
  19.00 -11.00     -1.5886    
  19.00 -10.00     -1.5985    
  19.00  -9.00     -1.5962    
  19.00  -8.00     -1.5829    
  19.00  -7.00     -1.5652    
  19.00  -6.00     -1.5527    
  19.00  -5.00     -1.5536    
  19.00  -4.00     -1.5712    
  19.00  -3.00     -1.6019    
  19.00  -2.00     -1.6359    
  19.00  -1.00     -1.6605    
  19.00   0.00     -1.6648    
  19.00   1.00     -1.6442    
  19.00   2.00     -1.6026    
  19.00   3.00     -1.5515    
  19.00   4.00     -1.5058    
  19.00   5.00     -1.4776    
  19.00   6.00     -1.4702    
  19.00   7.00     -1.4745    
  19.00   8.00     -1.4698    
  19.00   9.00     -1.4293    
  19.00  10.00     -1.3282    
  19.00  11.00     -1.1539    
  19.00  12.00    -0.91203    
  19.00  13.00    -0.62889    
  19.00  14.00    -0.34615    
  19.00  15.00    -0.11066    
  19.00  16.00     0.38859E-01
  19.00  17.00     0.83874E-01
  19.00  18.00     0.32864E-01
  19.00  19.00    -0.79657E-01
  19.00  20.00    -0.20228    
  19.00  21.00    -0.28171    
  19.00  22.00    -0.27918    
  19.00  23.00    -0.18330    
  19.00  24.00    -0.14865E-01
  19.00  25.00     0.17833    
  19.00  26.00     0.33558    
  19.00  27.00     0.40233    
  19.00  28.00     0.34859    
  19.00  29.00     0.18067    
  19.00  30.00    -0.57555E-01
  19.00  31.00    -0.29493    
  19.00  32.00    -0.45215    
  19.00  33.00    -0.46426    
  19.00  34.00    -0.30000    
  19.00  35.00     0.28124E-01
  19.00  36.00     0.46593    
  19.00  37.00     0.93166    
  19.00  38.00      1.3379    
  19.00  39.00      1.6147    
  19.00  40.00      1.7279    
  19.00  41.00      1.6858    
  19.00  42.00      1.5346    
  19.00  43.00      1.3425    
  19.00  44.00      1.1783    
  19.00  45.00      1.0911    
  19.00  46.00      1.0979    
  19.00  47.00      1.1800    
  19.00  48.00      1.2929    
  19.00  49.00      1.3811    
  19.00  50.00      1.3979    
  19.00  51.00      1.3191    
  19.00  52.00      1.1501    
  19.00  53.00     0.92224    
  19.00  54.00     0.68148    
  19.00  55.00     0.47260    
  19.00  56.00     0.32541    
  19.00  57.00     0.24635    
  19.00  58.00     0.21873    
  19.00  59.00     0.21094    
  19.00  60.00     0.18912    
  19.00  61.00     0.13060    
  19.00  62.00     0.32312E-01
  19.00  63.00    -0.88285E-01
  19.00  64.00    -0.19811    
  19.00  65.00    -0.26110    
  19.00  66.00    -0.24981    
  19.00  67.00    -0.15548    
  19.00  68.00     0.84963E-02
  19.00  69.00     0.21179    
  19.00  70.00     0.41514    
  19.00  71.00     0.58322    
  19.00  72.00     0.69369    
  19.00  73.00     0.74473    
  19.00  74.00     0.75022    
  19.00  75.00     0.73513    
  19.00  76.00     0.72333    
  19.00  77.00     0.73166    
  19.00  78.00     0.76065    
  19.00  79.00     0.79773    
  19.00  80.00     0.82149    
  19.00  81.00     0.81156    
  19.00  82.00     0.75744    
  19.00  83.00     0.66198    
  19.00  84.00     0.54233    
  19.00  85.00     0.42376    
  19.00  86.00     0.33515    
  19.00  87.00     0.29487    
  19.00  88.00     0.30674    
  19.00  89.00     0.36152    
  20.00 -89.00     0.81041    
  20.00 -88.00     0.64986    
  20.00 -87.00     0.55193    
  20.00 -86.00     0.55423    
  20.00 -85.00     0.66185    
  20.00 -84.00     0.84993    
  20.00 -83.00      1.0661    
  20.00 -82.00      1.2469    
  20.00 -81.00      1.3324    
  20.00 -80.00      1.2877    
  20.00 -79.00      1.1117    
  20.00 -78.00     0.83801    
  20.00 -77.00     0.52816    
  20.00 -76.00     0.25270    
  20.00 -75.00     0.74574E-01
  20.00 -74.00     0.30281E-01
  20.00 -73.00     0.11857    
  20.00 -72.00     0.30423    
  20.00 -71.00     0.52516    
  20.00 -70.00     0.70955    
  20.00 -69.00     0.79543    
  20.00 -68.00     0.74582    
  20.00 -67.00     0.55855    
  20.00 -66.00     0.26516    
  20.00 -65.00    -0.78865E-01
  20.00 -64.00    -0.40605    
  20.00 -63.00    -0.65798    
  20.00 -62.00    -0.79678    
  20.00 -61.00    -0.81257    
  20.00 -60.00    -0.72514    
  20.00 -59.00    -0.57489    
  20.00 -58.00    -0.41214    
  20.00 -57.00    -0.28285    
  20.00 -56.00    -0.21794    
  20.00 -55.00    -0.22714    
  20.00 -54.00    -0.29912    
  20.00 -53.00    -0.40609    
  20.00 -52.00    -0.51383    
  20.00 -51.00    -0.59059    
  20.00 -50.00    -0.61536    
  20.00 -49.00    -0.58264    
  20.00 -48.00    -0.50194    
  20.00 -47.00    -0.39489    
  20.00 -46.00    -0.28848    
  20.00 -45.00    -0.20857    
  20.00 -44.00    -0.17442    
  20.00 -43.00    -0.19557    
  20.00 -42.00    -0.27101    
  20.00 -41.00    -0.39110    
  20.00 -40.00    -0.54039    
  20.00 -39.00    -0.70138    
  20.00 -38.00    -0.85722    
  20.00 -37.00    -0.99376    
  20.00 -36.00     -1.1005    
  20.00 -35.00     -1.1706    
  20.00 -34.00     -1.2014    
  20.00 -33.00     -1.1937    
  20.00 -32.00     -1.1525    
  20.00 -31.00     -1.0867    
  20.00 -30.00     -1.0089    
  20.00 -29.00    -0.93375    
  20.00 -28.00    -0.87675    
  20.00 -27.00    -0.85092    
  20.00 -26.00    -0.86447    
  20.00 -25.00    -0.91876    
  20.00 -24.00     -1.0077    
  20.00 -23.00     -1.1187    
  20.00 -22.00     -1.2356    
  20.00 -21.00     -1.3416    
  20.00 -20.00     -1.4236    
  20.00 -19.00     -1.4741    
  20.00 -18.00     -1.4926    
  20.00 -17.00     -1.4847    
  20.00 -16.00     -1.4593    
  20.00 -15.00     -1.4265    
  20.00 -14.00     -1.3941    
  20.00 -13.00     -1.3667    
  20.00 -12.00     -1.3457    
  20.00 -11.00     -1.3304    
  20.00 -10.00     -1.3201    
  20.00  -9.00     -1.3156    
  20.00  -8.00     -1.3197    
  20.00  -7.00     -1.3360    
  20.00  -6.00     -1.3670    
  20.00  -5.00     -1.4117    
  20.00  -4.00     -1.4641    
  20.00  -3.00     -1.5139    
  20.00  -2.00     -1.5487    
  20.00  -1.00     -1.5575    
  20.00   0.00     -1.5355    
  20.00   1.00     -1.4863    
  20.00   2.00     -1.4226    
  20.00   3.00     -1.3624    
  20.00   4.00     -1.3240    
  20.00   5.00     -1.3191    
  20.00   6.00     -1.3472    
  20.00   7.00     -1.3934    
  20.00   8.00     -1.4313    
  20.00   9.00     -1.4294    
  20.00  10.00     -1.3612    
  20.00  11.00     -1.2139    
  20.00  12.00    -0.99520    
  20.00  13.00    -0.73335    
  20.00  14.00    -0.47104    
  20.00  15.00    -0.25426    
  20.00  16.00    -0.11904    
  20.00  17.00    -0.80186E-01
  20.00  18.00    -0.12584    
  20.00  19.00    -0.21995    
  20.00  20.00    -0.31246    
  20.00  21.00    -0.35455    
  20.00  22.00    -0.31427    
  20.00  23.00    -0.18769    
  20.00  24.00    -0.16337E-02
  20.00  25.00     0.19334    
  20.00  26.00     0.33819    
  20.00  27.00     0.38442    
  20.00  28.00     0.31115    
  20.00  29.00     0.13464    
  20.00  30.00    -0.93050E-01
  20.00  31.00    -0.29672    
  20.00  32.00    -0.39843    
  20.00  33.00    -0.34011    
  20.00  34.00    -0.10145    
  20.00  35.00     0.29233    
  20.00  36.00     0.77552    
  20.00  37.00      1.2586    
  20.00  38.00      1.6516    
  20.00  39.00      1.8881    
  20.00  40.00      1.9421    
  20.00  41.00      1.8331    
  20.00  42.00      1.6188    
  20.00  43.00      1.3768    
  20.00  44.00      1.1816    
  20.00  45.00      1.0836    
  20.00  46.00      1.0965    
  20.00  47.00      1.1961    
  20.00  48.00      1.3302    
  20.00  49.00      1.4373    
  20.00  50.00      1.4654    
  20.00  51.00      1.3885    
  20.00  52.00      1.2125    
  20.00  53.00     0.97123    
  20.00  54.00     0.71461    
  20.00  55.00     0.49119    
  20.00  56.00     0.33397    
  20.00  57.00     0.25141    
  20.00  58.00     0.22732    
  20.00  59.00     0.22933    
  20.00  60.00     0.22202    
  20.00  61.00     0.18054    
  20.00  62.00     0.99637E-01
  20.00  63.00    -0.52177E-02
  20.00  64.00    -0.10243    
  20.00  65.00    -0.15695    
  20.00  66.00    -0.14177    
  20.00  67.00    -0.47996E-01
  20.00  68.00     0.11163    
  20.00  69.00     0.30792    
  20.00  70.00     0.50276    
  20.00  71.00     0.66207    
  20.00  72.00     0.76459    
  20.00  73.00     0.80919    
  20.00  74.00     0.80998    
  20.00  75.00     0.79160    
  20.00  76.00     0.77729    
  20.00  77.00     0.78298    
  20.00  78.00     0.80833    
  20.00  79.00     0.84024    
  20.00  80.00     0.85714    
  20.00  81.00     0.83896    
  20.00  82.00     0.77598    
  20.00  83.00     0.67184    
  20.00  84.00     0.54474    
  20.00  85.00     0.42093    
  20.00  86.00     0.32931    
  20.00  87.00     0.28841    
  20.00  88.00     0.30144    
  20.00  89.00     0.35872    
  21.00 -89.00     0.81285    
  21.00 -88.00     0.65363    
  21.00 -87.00     0.55554    
  21.00 -86.00     0.55642    
  21.00 -85.00     0.66131    
  21.00 -84.00     0.84612    
  21.00 -83.00      1.0594    
  21.00 -82.00      1.2376    
  21.00 -81.00      1.3213    
  21.00 -80.00      1.2750    
  21.00 -79.00      1.0973    
  21.00 -78.00     0.82070    
  21.00 -77.00     0.50633    
  21.00 -76.00     0.22468    
  21.00 -75.00     0.39184E-01
  21.00 -74.00    -0.12400E-01
  21.00 -73.00     0.70065E-01
  21.00 -72.00     0.25288    
  21.00 -71.00     0.47483    
  21.00 -70.00     0.66418    
  21.00 -69.00     0.75787    
  21.00 -68.00     0.71714    
  21.00 -67.00     0.53759    
  21.00 -66.00     0.24853    
  21.00 -65.00    -0.95777E-01
  21.00 -64.00    -0.42805    
  21.00 -63.00    -0.68885    
  21.00 -62.00    -0.83809    
  21.00 -61.00    -0.86316    
  21.00 -60.00    -0.78131    
  21.00 -59.00    -0.63129    
  21.00 -58.00    -0.46306    
  21.00 -57.00    -0.32369    
  21.00 -56.00    -0.24643    
  21.00 -55.00    -0.24373    
  21.00 -54.00    -0.30686    
  21.00 -53.00    -0.40957    
  21.00 -52.00    -0.51787    
  21.00 -51.00    -0.59861    
  21.00 -50.00    -0.62825    
  21.00 -49.00    -0.59823    
  21.00 -48.00    -0.51522    
  21.00 -47.00    -0.39903    
  21.00 -46.00    -0.27622    
  21.00 -45.00    -0.17390    
  21.00 -44.00    -0.11380    
  21.00 -43.00    -0.10869    
  21.00 -42.00    -0.16074    
  21.00 -41.00    -0.26291    
  21.00 -40.00    -0.40136    
  21.00 -39.00    -0.55895    
  21.00 -38.00    -0.71816    
  21.00 -37.00    -0.86345    
  21.00 -36.00    -0.98255    
  21.00 -35.00     -1.0670    
  21.00 -34.00     -1.1123    
  21.00 -33.00     -1.1178    
  21.00 -32.00     -1.0871    
  21.00 -31.00     -1.0276    
  21.00 -30.00    -0.95028    
  21.00 -29.00    -0.86899    
  21.00 -28.00    -0.79861    
  21.00 -27.00    -0.75283    
  21.00 -26.00    -0.74177    
  21.00 -25.00    -0.76996    
  21.00 -24.00    -0.83521    
  21.00 -23.00    -0.92896    
  21.00 -22.00     -1.0379    
  21.00 -21.00     -1.1465    
  21.00 -20.00     -1.2402    
  21.00 -19.00     -1.3079    
  21.00 -18.00     -1.3439    
  21.00 -17.00     -1.3476    
  21.00 -16.00     -1.3234    
  21.00 -15.00     -1.2788    
  21.00 -14.00     -1.2226    
  21.00 -13.00     -1.1637    
  21.00 -12.00     -1.1102    
  21.00 -11.00     -1.0693    
  21.00 -10.00     -1.0472    
  21.00  -9.00     -1.0488    
  21.00  -8.00     -1.0770    
  21.00  -7.00     -1.1315    
  21.00  -6.00     -1.2075    
  21.00  -5.00     -1.2949    
  21.00  -4.00     -1.3794    
  21.00  -3.00     -1.4447    
  21.00  -2.00     -1.4761    
  21.00  -1.00     -1.4651    
  21.00   0.00     -1.4125    
  21.00   1.00     -1.3298    
  21.00   2.00     -1.2374    
  21.00   3.00     -1.1598    
  21.00   4.00     -1.1184    
  21.00   5.00     -1.1249    
  21.00   6.00     -1.1761    
  21.00   7.00     -1.2530    
  21.00   8.00     -1.3250    
  21.00   9.00     -1.3575    
  21.00  10.00     -1.3227    
  21.00  11.00     -1.2080    
  21.00  12.00     -1.0220    
  21.00  13.00    -0.79329    
  21.00  14.00    -0.56369    
  21.00  15.00    -0.37654    
  21.00  16.00    -0.26387    
  21.00  17.00    -0.23615    
  21.00  18.00    -0.27831    
  21.00  19.00    -0.35351    
  21.00  20.00    -0.41417    
  21.00  21.00    -0.41700    
  21.00  22.00    -0.33759    
  21.00  23.00    -0.17973    
  21.00  24.00     0.23869E-01
  21.00  25.00     0.22039    
  21.00  26.00     0.35293    
  21.00  27.00     0.37923    
  21.00  28.00     0.28724    
  21.00  29.00     0.10245    
  21.00  30.00    -0.11602    
  21.00  31.00    -0.29004    
  21.00  32.00    -0.34390    
  21.00  33.00    -0.22663    
  21.00  34.00     0.71637E-01
  21.00  35.00     0.51427    
  21.00  36.00      1.0258    
  21.00  37.00      1.5109    
  21.00  38.00      1.8790    
  21.00  39.00      2.0682    
  21.00  40.00      2.0610    
  21.00  41.00      1.8878    
  21.00  42.00      1.6164    
  21.00  43.00      1.3325    
  21.00  44.00      1.1148    
  21.00  45.00      1.0137    
  21.00  46.00      1.0394    
  21.00  47.00      1.1616    
  21.00  48.00      1.3216    
  21.00  49.00      1.4516    
  21.00  50.00      1.4958    
  21.00  51.00      1.4263    
  21.00  52.00      1.2496    
  21.00  53.00      1.0020    
  21.00  54.00     0.73653    
  21.00  55.00     0.50485    
  21.00  56.00     0.34265    
  21.00  57.00     0.25995    
  21.00  58.00     0.24105    
  21.00  59.00     0.25301    
  21.00  60.00     0.25925    
  21.00  61.00     0.23324    
  21.00  62.00     0.16799    
  21.00  63.00     0.77303E-01
  21.00  64.00    -0.85723E-02
  21.00  65.00    -0.55559E-01
  21.00  66.00    -0.37143E-01
  21.00  67.00     0.55610E-01
  21.00  68.00     0.21057    
  21.00  69.00     0.39965    
  21.00  70.00     0.58595    
  21.00  71.00     0.73660    
  21.00  72.00     0.83159    
  21.00  73.00     0.87034    
  21.00  74.00     0.86713    
  21.00  75.00     0.84612    
  21.00  76.00     0.82990    
  21.00  77.00     0.83334    
  21.00  78.00     0.85523    
  21.00  79.00     0.88197    
  21.00  80.00     0.89192    
  21.00  81.00     0.86540    
  21.00  82.00     0.79353    
  21.00  83.00     0.68078    
  21.00  84.00     0.54637    
  21.00  85.00     0.41757    
  21.00  86.00     0.32318    
  21.00  87.00     0.28183    
  21.00  88.00     0.29613    
  21.00  89.00     0.35593    
  22.00 -89.00     0.81533    
  22.00 -88.00     0.65749    
  22.00 -87.00     0.55921    
  22.00 -86.00     0.55852    
  22.00 -85.00     0.66041    
  22.00 -84.00     0.84157    
  22.00 -83.00      1.0517    
  22.00 -82.00      1.2268    
  22.00 -81.00      1.3083    
  22.00 -80.00      1.2605    
  22.00 -79.00      1.0812    
  22.00 -78.00     0.80213    
  22.00 -77.00     0.48376    
  22.00 -76.00     0.19637    
  22.00 -75.00     0.37574E-02
  22.00 -74.00    -0.55241E-01
  22.00 -73.00     0.20905E-01
  22.00 -72.00     0.20013    
  22.00 -71.00     0.42226    
  22.00 -70.00     0.61610    
  22.00 -69.00     0.71784    
  22.00 -68.00     0.68727    
  22.00 -67.00     0.51796    
  22.00 -66.00     0.23693    
  22.00 -65.00    -0.10292    
  22.00 -64.00    -0.43529    
  22.00 -63.00    -0.70016    
  22.00 -62.00    -0.85587    
  22.00 -61.00    -0.88763    
  22.00 -60.00    -0.81036    
  22.00 -59.00    -0.66111    
  22.00 -58.00    -0.48911    
  22.00 -57.00    -0.34190    
  22.00 -56.00    -0.25444    
  22.00 -55.00    -0.24136    
  22.00 -54.00    -0.29618    
  22.00 -53.00    -0.39428    
  22.00 -52.00    -0.50229    
  22.00 -51.00    -0.58628    
  22.00 -50.00    -0.62098    
  22.00 -49.00    -0.59540    
  22.00 -48.00    -0.51376    
  22.00 -47.00    -0.39406    
  22.00 -46.00    -0.26200    
  22.00 -45.00    -0.14524    
  22.00 -44.00    -0.67105E-01
  22.00 -43.00    -0.42735E-01
  22.00 -42.00    -0.77004E-01
  22.00 -41.00    -0.16529    
  22.00 -40.00    -0.29561    
  22.00 -39.00    -0.45177    
  22.00 -38.00    -0.61634    
  22.00 -37.00    -0.77310    
  22.00 -36.00    -0.90848    
  22.00 -35.00     -1.0123    
  22.00 -34.00     -1.0782    
  22.00 -33.00     -1.1033    
  22.00 -32.00     -1.0889    
  22.00 -31.00     -1.0403    
  22.00 -30.00    -0.96658    
  22.00 -29.00    -0.88030    
  22.00 -28.00    -0.79606    
  22.00 -27.00    -0.72855    
  22.00 -26.00    -0.69023    
  22.00 -25.00    -0.68903    
  22.00 -24.00    -0.72683    
  22.00 -23.00    -0.79885    
  22.00 -22.00    -0.89445    
  22.00 -21.00    -0.99906    
  22.00 -20.00     -1.0968    
  22.00 -19.00     -1.1733    
  22.00 -18.00     -1.2182    
  22.00 -17.00     -1.2263    
  22.00 -16.00     -1.1983    
  22.00 -15.00     -1.1403    
  22.00 -14.00     -1.0624    
  22.00 -13.00    -0.97781    
  22.00 -12.00    -0.90037    
  22.00 -11.00    -0.84361    
  22.00 -10.00    -0.81882    
  22.00  -9.00    -0.83346    
  22.00  -8.00    -0.88954    
  22.00  -7.00    -0.98243    
  22.00  -6.00     -1.1005    
  22.00  -5.00     -1.2260    
  22.00  -4.00     -1.3377    
  22.00  -3.00     -1.4146    
  22.00  -2.00     -1.4408    
  22.00  -1.00     -1.4100    
  22.00   0.00     -1.3279    
  22.00   1.00     -1.2125    
  22.00   2.00     -1.0903    
  22.00   3.00    -0.99051    
  22.00   4.00    -0.93709    
  22.00   5.00    -0.94179    
  22.00   6.00    -0.99980    
  22.00   7.00     -1.0899    
  22.00   8.00     -1.1794    
  22.00   9.00     -1.2329    
  22.00  10.00     -1.2222    
  22.00  11.00     -1.1358    
  22.00  12.00    -0.98225    
  22.00  13.00    -0.78958    
  22.00  14.00    -0.59705    
  22.00  15.00    -0.44388    
  22.00  16.00    -0.35703    
  22.00  17.00    -0.34228    
  22.00  18.00    -0.38163    
  22.00  19.00    -0.43824    
  22.00  20.00    -0.46786    
  22.00  21.00    -0.43341    
  22.00  22.00    -0.31822    
  22.00  23.00    -0.13350    
  22.00  24.00     0.82893E-01
  22.00  25.00     0.27668    
  22.00  26.00     0.39369    
  22.00  27.00     0.39795    
  22.00  28.00     0.28572    
  22.00  29.00     0.90534E-01
  22.00  30.00    -0.12286    
  22.00  31.00    -0.27469    
  22.00  32.00    -0.29228    
  22.00  33.00    -0.13168    
  22.00  34.00     0.20754    
  22.00  35.00     0.67920    
  22.00  36.00      1.2004    
  22.00  37.00      1.6724    
  22.00  38.00      2.0056    
  22.00  39.00      2.1436    
  22.00  40.00      2.0776    
  22.00  41.00      1.8473    
  22.00  42.00      1.5293    
  22.00  43.00      1.2150    
  22.00  44.00     0.98564    
  22.00  45.00     0.89040    
  22.00  46.00     0.93521    
  22.00  47.00      1.0841    
  22.00  48.00      1.2724    
  22.00  49.00      1.4275    
  22.00  50.00      1.4903    
  22.00  51.00      1.4320    
  22.00  52.00      1.2599    
  22.00  53.00      1.0119    
  22.00  54.00     0.74382    
  22.00  55.00     0.50971    
  22.00  56.00     0.34715    
  22.00  57.00     0.26732    
  22.00  58.00     0.25490    
  22.00  59.00     0.27666    
  22.00  60.00     0.29527    
  22.00  61.00     0.28306    
  22.00  62.00     0.23175    
  22.00  63.00     0.15385    
  22.00  64.00     0.78387E-01
  22.00  65.00     0.38447E-01
  22.00  66.00     0.59938E-01
  22.00  67.00     0.15176    
  22.00  68.00     0.30227    
  22.00  69.00     0.48442    
  22.00  70.00     0.66260    
  22.00  71.00     0.80507    
  22.00  72.00     0.89330    
  22.00  73.00     0.92703    
  22.00  74.00     0.92071    
  22.00  75.00     0.89794    
  22.00  76.00     0.88053    
  22.00  77.00     0.88224    
  22.00  78.00     0.90094    
  22.00  79.00     0.92262    
  22.00  80.00     0.92561    
  22.00  81.00     0.89071    
  22.00  82.00     0.80997    
  22.00  83.00     0.68871    
  22.00  84.00     0.54719    
  22.00  85.00     0.41368    
  22.00  86.00     0.31675    
  22.00  87.00     0.27513    
  22.00  88.00     0.29080    
  22.00  89.00     0.35316    
  23.00 -89.00     0.81787    
  23.00 -88.00     0.66144    
  23.00 -87.00     0.56294    
  23.00 -86.00     0.56052    
  23.00 -85.00     0.65916    
  23.00 -84.00     0.83631    
  23.00 -83.00      1.0428    
  23.00 -82.00      1.2144    
  23.00 -81.00      1.2936    
  23.00 -80.00      1.2441    
  23.00 -79.00      1.0634    
  23.00 -78.00     0.78240    
  23.00 -77.00     0.46063    
  23.00 -76.00     0.16808    
  23.00 -75.00    -0.31304E-01
  23.00 -74.00    -0.97714E-01
  23.00 -73.00    -0.28265E-01
  23.00 -72.00     0.14670    
  23.00 -71.00     0.36828    
  23.00 -70.00     0.56617    
  23.00 -69.00     0.67622    
  23.00 -68.00     0.65714    
  23.00 -67.00     0.50064    
  23.00 -66.00     0.23144    
  23.00 -65.00    -0.99133E-01
  23.00 -64.00    -0.42645    
  23.00 -63.00    -0.69036    
  23.00 -62.00    -0.84836    
  23.00 -61.00    -0.88399    
  23.00 -60.00    -0.81009    
  23.00 -59.00    -0.66198    
  23.00 -58.00    -0.48778    
  23.00 -57.00    -0.33493    
  23.00 -56.00    -0.23941    
  23.00 -55.00    -0.21748    
  23.00 -54.00    -0.26456    
  23.00 -53.00    -0.35771    
  23.00 -52.00    -0.46450    
  23.00 -51.00    -0.55092    
  23.00 -50.00    -0.59072    
  23.00 -49.00    -0.57115    
  23.00 -48.00    -0.49444    
  23.00 -47.00    -0.37681    
  23.00 -46.00    -0.24279    
  23.00 -45.00    -0.11990    
  23.00 -44.00    -0.32278E-01
  23.00 -43.00     0.33711E-02
  23.00 -42.00    -0.19976E-01
  23.00 -41.00    -0.99879E-01
  23.00 -40.00    -0.22640    
  23.00 -39.00    -0.38471    
  23.00 -38.00    -0.55806    
  23.00 -37.00    -0.73005    
  23.00 -36.00    -0.88614    
  23.00 -35.00     -1.0145    
  23.00 -34.00     -1.1063    
  23.00 -33.00     -1.1561    
  23.00 -32.00     -1.1624    
  23.00 -31.00     -1.1277    
  23.00 -30.00     -1.0590    
  23.00 -29.00    -0.96763    
  23.00 -28.00    -0.86830    
  23.00 -27.00    -0.77708    
  23.00 -26.00    -0.70911    
  23.00 -25.00    -0.67598    
  23.00 -24.00    -0.68346    
  23.00 -23.00    -0.73029    
  23.00 -22.00    -0.80816    
  23.00 -21.00    -0.90315    
  23.00 -20.00    -0.99824    
  23.00 -19.00     -1.0764    
  23.00 -18.00     -1.1236    
  23.00 -17.00     -1.1312    
  23.00 -16.00     -1.0976    
  23.00 -15.00     -1.0283    
  23.00 -14.00    -0.93512    
  23.00 -13.00    -0.83424    
  23.00 -12.00    -0.74409    
  23.00 -11.00    -0.68243    
  23.00 -10.00    -0.66357    
  23.00  -9.00    -0.69581    
  23.00  -8.00    -0.77946    
  23.00  -7.00    -0.90596    
  23.00  -6.00     -1.0583    
  23.00  -5.00     -1.2130    
  23.00  -4.00     -1.3443    
  23.00  -3.00     -1.4285    
  23.00  -2.00     -1.4496    
  23.00  -1.00     -1.4032    
  23.00   0.00     -1.2986    
  23.00   1.00     -1.1578    
  23.00   2.00     -1.0110    
  23.00   3.00    -0.88960    
  23.00   4.00    -0.81857    
  23.00   5.00    -0.80949    
  23.00   6.00    -0.85696    
  23.00   7.00    -0.93943    
  23.00   8.00     -1.0247    
  23.00   9.00     -1.0786    
  23.00  10.00     -1.0751    
  23.00  11.00     -1.0039    
  23.00  12.00    -0.87419    
  23.00  13.00    -0.71226    
  23.00  14.00    -0.55378    
  23.00  15.00    -0.43275    
  23.00  16.00    -0.37042    
  23.00  17.00    -0.36781    
  23.00  18.00    -0.40441    
  23.00  19.00    -0.44407    
  23.00  20.00    -0.44643    
  23.00  21.00    -0.38081    
  23.00  22.00    -0.23791    
  23.00  23.00    -0.35405E-01
  23.00  24.00     0.18494    
  23.00  25.00     0.36852    
  23.00  26.00     0.46460    
  23.00  27.00     0.44345    
  23.00  28.00     0.30872    
  23.00  29.00     0.10046    
  23.00  30.00    -0.11268    
  23.00  31.00    -0.25087    
  23.00  32.00    -0.24518    
  23.00  33.00    -0.58455E-01
  23.00  34.00     0.30172    
  23.00  35.00     0.78187    
  23.00  36.00      1.2944    
  23.00  37.00      1.7394    
  23.00  38.00      2.0304    
  23.00  39.00      2.1171    
  23.00  40.00      1.9985    
  23.00  41.00      1.7224    
  23.00  42.00      1.3714    
  23.00  43.00      1.0406    
  23.00  44.00     0.81140    
  23.00  45.00     0.73052    
  23.00  46.00     0.79931    
  23.00  47.00     0.97672    
  23.00  48.00      1.1932    
  23.00  49.00      1.3726    
  23.00  50.00      1.4540    
  23.00  51.00      1.4083    
  23.00  52.00      1.2437    
  23.00  53.00     0.99987    
  23.00  54.00     0.73427    
  23.00  55.00     0.50255    
  23.00  56.00     0.34346    
  23.00  57.00     0.26883    
  23.00  58.00     0.26368    
  23.00  59.00     0.29471    
  23.00  60.00     0.32430    
  23.00  61.00     0.32419    
  23.00  62.00     0.28529    
  23.00  63.00     0.21912    
  23.00  64.00     0.15357    
  23.00  65.00     0.12070    
  23.00  66.00     0.14567    
  23.00  67.00     0.23719    
  23.00  68.00     0.38398    
  23.00  69.00     0.55995    
  23.00  70.00     0.73081    
  23.00  71.00     0.86596    
  23.00  72.00     0.94843    
  23.00  73.00     0.97822    
  23.00  74.00     0.96989    
  23.00  75.00     0.94635    
  23.00  76.00     0.92861    
  23.00  77.00     0.92920    
  23.00  78.00     0.94509    
  23.00  79.00     0.96190    
  23.00  80.00     0.95798    
  23.00  81.00     0.91473    
  23.00  82.00     0.82520    
  23.00  83.00     0.69559    
  23.00  84.00     0.54720    
  23.00  85.00     0.40922    
  23.00  86.00     0.31003    
  23.00  87.00     0.26830    
  23.00  88.00     0.28546    
  23.00  89.00     0.35040    
  24.00 -89.00     0.82045    
  24.00 -88.00     0.66547    
  24.00 -87.00     0.56674    
  24.00 -86.00     0.56244    
  24.00 -85.00     0.65758    
  24.00 -84.00     0.83034    
  24.00 -83.00      1.0327    
  24.00 -82.00      1.2005    
  24.00 -81.00      1.2770    
  24.00 -80.00      1.2259    
  24.00 -79.00      1.0441    
  24.00 -78.00     0.76164    
  24.00 -77.00     0.43713    
  24.00 -76.00     0.14008    
  24.00 -75.00    -0.65597E-01
  24.00 -74.00    -0.13928    
  24.00 -73.00    -0.76776E-01
  24.00 -72.00     0.93366E-01
  24.00 -71.00     0.31374    
  24.00 -70.00     0.51530    
  24.00 -69.00     0.63394    
  24.00 -68.00     0.62764    
  24.00 -67.00     0.48649    
  24.00 -66.00     0.23288    
  24.00 -65.00    -0.83662E-01
  24.00 -64.00    -0.40077    
  24.00 -63.00    -0.65868    
  24.00 -62.00    -0.81472    
  24.00 -61.00    -0.85133    
  24.00 -60.00    -0.77951    
  24.00 -59.00    -0.63286    
  24.00 -58.00    -0.45799    
  24.00 -57.00    -0.30172    
  24.00 -56.00    -0.20033    
  24.00 -55.00    -0.17116    
  24.00 -54.00    -0.21117    
  24.00 -53.00    -0.29913    
  24.00 -52.00    -0.40384    
  24.00 -51.00    -0.49183    
  24.00 -50.00    -0.53662    
  24.00 -49.00    -0.52436    
  24.00 -48.00    -0.45576    
  24.00 -47.00    -0.34532    
  24.00 -46.00    -0.21619    
  24.00 -45.00    -0.95124E-01
  24.00 -44.00    -0.63553E-02
  24.00 -43.00     0.32564E-01
  24.00 -42.00     0.12999E-01
  24.00 -41.00    -0.64563E-01
  24.00 -40.00    -0.19224    
  24.00 -39.00    -0.35691    
  24.00 -38.00    -0.54288    
  24.00 -37.00    -0.73391    
  24.00 -36.00    -0.91463    
  24.00 -35.00     -1.0714    
  24.00 -34.00     -1.1927    
  24.00 -33.00     -1.2701    
  24.00 -32.00     -1.2987    
  24.00 -31.00     -1.2782    
  24.00 -30.00     -1.2135    
  24.00 -29.00     -1.1152    
  24.00 -28.00    -0.99831    
  24.00 -27.00    -0.88099    
  24.00 -26.00    -0.78139    
  24.00 -25.00    -0.71479    
  24.00 -24.00    -0.69061    
  24.00 -23.00    -0.71060    
  24.00 -22.00    -0.76827    
  24.00 -21.00    -0.85008    
  24.00 -20.00    -0.93795    
  24.00 -19.00     -1.0128    
  24.00 -18.00     -1.0582    
  24.00 -17.00     -1.0634    
  24.00 -16.00     -1.0256    
  24.00 -15.00    -0.95039    
  24.00 -14.00    -0.85085    
  24.00 -13.00    -0.74547    
  24.00 -12.00    -0.65509    
  24.00 -11.00    -0.59935    
  24.00 -10.00    -0.59328    
  24.00  -9.00    -0.64443    
  24.00  -8.00    -0.75098    
  24.00  -7.00    -0.90125    
  24.00  -6.00     -1.0749    
  24.00  -5.00     -1.2458    
  24.00  -4.00     -1.3863    
  24.00  -3.00     -1.4728    
  24.00  -2.00     -1.4901    
  24.00  -1.00     -1.4356    
  24.00   0.00     -1.3204    
  24.00   1.00     -1.1676    
  24.00   2.00     -1.0075    
  24.00   3.00    -0.87108    
  24.00   4.00    -0.78199    
  24.00   5.00    -0.75098    
  24.00   6.00    -0.77273    
  24.00   7.00    -0.82726    
  24.00   8.00    -0.88536    
  24.00   9.00    -0.91688    
  24.00  10.00    -0.89960    
  24.00  11.00    -0.82608    
  24.00  12.00    -0.70618    
  24.00  13.00    -0.56428    
  24.00  14.00    -0.43176    
  24.00  15.00    -0.33678    
  24.00  16.00    -0.29465    
  24.00  17.00    -0.30180    
  24.00  18.00    -0.33578    
  24.00  19.00    -0.36168    
  24.00  20.00    -0.34333    
  24.00  21.00    -0.25616    
  24.00  22.00    -0.97224E-01
  24.00  23.00     0.11079    
  24.00  24.00     0.32389    
  24.00  25.00     0.48858    
  24.00  26.00     0.55825    
  24.00  27.00     0.50917    
  24.00  28.00     0.35116    
  24.00  29.00     0.12892    
  24.00  30.00    -0.87163E-01
  24.00  31.00    -0.21883    
  24.00  32.00    -0.20177    
  24.00  33.00    -0.51490E-02
  24.00  34.00     0.35703    
  24.00  35.00     0.82653    
  24.00  36.00      1.3139    
  24.00  37.00      1.7208    
  24.00  38.00      1.9654    
  24.00  39.00      2.0040    
  24.00  40.00      1.8424    
  24.00  41.00      1.5343    
  24.00  42.00      1.1660    
  24.00  43.00     0.83328    
  24.00  44.00     0.61568    
  24.00  45.00     0.55620    
  24.00  46.00     0.65152    
  24.00  47.00     0.85624    
  24.00  48.00      1.0975    
  24.00  49.00      1.2973    
  24.00  50.00      1.3943    
  24.00  51.00      1.3600    
  24.00  52.00      1.2037    
  24.00  53.00     0.96662    
  24.00  54.00     0.70696    
  24.00  55.00     0.48113    
  24.00  56.00     0.32823    
  24.00  57.00     0.26029    
  24.00  58.00     0.26253    
  24.00  59.00     0.30188    
  24.00  60.00     0.34088    
  24.00  61.00     0.35123    
  24.00  62.00     0.32343    
  24.00  63.00     0.26832    
  24.00  64.00     0.21267    
  24.00  65.00     0.18742    
  24.00  66.00     0.21681    
  24.00  67.00     0.30914    
  24.00  68.00     0.45338    
  24.00  69.00     0.62431    
  24.00  70.00     0.78899    
  24.00  71.00     0.91797    
  24.00  72.00     0.99589    
  24.00  73.00      1.0230    
  24.00  74.00      1.0139    
  24.00  75.00     0.99074    
  24.00  76.00     0.97361    
  24.00  77.00     0.97380    
  24.00  78.00     0.98733    
  24.00  79.00     0.99951    
  24.00  80.00     0.98882    
  24.00  81.00     0.93731    
  24.00  82.00     0.83912    
  24.00  83.00     0.70136    
  24.00  84.00     0.54636    
  24.00  85.00     0.40420    
  24.00  86.00     0.30300    
  24.00  87.00     0.26135    
  24.00  88.00     0.28011    
  24.00  89.00     0.34765    
  25.00 -89.00     0.82309    
  25.00 -88.00     0.66959    
  25.00 -87.00     0.57061    
  25.00 -86.00     0.56428    
  25.00 -85.00     0.65567    
  25.00 -84.00     0.82370    
  25.00 -83.00      1.0216    
  25.00 -82.00      1.1851    
  25.00 -81.00      1.2587    
  25.00 -80.00      1.2060    
  25.00 -79.00      1.0233    
  25.00 -78.00     0.73995    
  25.00 -77.00     0.41345    
  25.00 -76.00     0.11266    
  25.00 -75.00    -0.98723E-01
  25.00 -74.00    -0.17942    
  25.00 -73.00    -0.12396    
  25.00 -72.00     0.40912E-01
  25.00 -71.00     0.25953    
  25.00 -70.00     0.46440    
  25.00 -69.00     0.59190    
  25.00 -68.00     0.59962    
  25.00 -67.00     0.47619    
  25.00 -66.00     0.24179    
  25.00 -65.00    -0.56215E-01
  25.00 -64.00    -0.35812    
  25.00 -63.00    -0.60517    
  25.00 -62.00    -0.75515    
  25.00 -61.00    -0.78995    
  25.00 -60.00    -0.71901    
  25.00 -59.00    -0.57416    
  25.00 -58.00    -0.40022    
  25.00 -57.00    -0.24282    
  25.00 -56.00    -0.13787    
  25.00 -55.00    -0.10327    
  25.00 -54.00    -0.13712    
  25.00 -53.00    -0.21988    
  25.00 -52.00    -0.32183    
  25.00 -51.00    -0.41064    
  25.00 -50.00    -0.46022    
  25.00 -49.00    -0.45624    
  25.00 -48.00    -0.39836    
  25.00 -47.00    -0.29945    
  25.00 -46.00    -0.18106    
  25.00 -45.00    -0.68723E-01
  25.00 -44.00     0.13896E-01
  25.00 -43.00     0.49017E-01
  25.00 -42.00     0.26873E-01
  25.00 -41.00    -0.53769E-01
  25.00 -40.00    -0.18706    
  25.00 -39.00    -0.36175    
  25.00 -38.00    -0.56344    
  25.00 -37.00    -0.77622    
  25.00 -36.00    -0.98391    
  25.00 -35.00     -1.1708    
  25.00 -34.00     -1.3227    
  25.00 -33.00     -1.4274    
  25.00 -32.00     -1.4768    
  25.00 -31.00     -1.4677    
  25.00 -30.00     -1.4034    
  25.00 -29.00     -1.2940    
  25.00 -28.00     -1.1561    
  25.00 -27.00     -1.0101    
  25.00 -26.00    -0.87768    
  25.00 -25.00    -0.77760    
  25.00 -24.00    -0.72254    
  25.00 -23.00    -0.71655    
  25.00 -22.00    -0.75426    
  25.00 -21.00    -0.82204    
  25.00 -20.00    -0.90085    
  25.00 -19.00    -0.97016    
  25.00 -18.00     -1.0122    
  25.00 -17.00     -1.0153    
  25.00 -16.00    -0.97678    
  25.00 -15.00    -0.90266    
  25.00 -14.00    -0.80706    
  25.00 -13.00    -0.70938    
  25.00 -12.00    -0.63074    
  25.00 -11.00    -0.59018    
  25.00 -10.00    -0.60121    
  25.00  -9.00    -0.66916    
  25.00  -8.00    -0.78987    
  25.00  -7.00    -0.94982    
  25.00  -6.00     -1.1279    
  25.00  -5.00     -1.2984    
  25.00  -4.00     -1.4357    
  25.00  -3.00     -1.5183    
  25.00  -2.00     -1.5335    
  25.00  -1.00     -1.4802    
  25.00   0.00     -1.3692    
  25.00   1.00     -1.2217    
  25.00   2.00     -1.0648    
  25.00   3.00    -0.92526    
  25.00   4.00    -0.82327    
  25.00   5.00    -0.76767    
  25.00   6.00    -0.75368    
  25.00   7.00    -0.76448    
  25.00   8.00    -0.77615    
  25.00   9.00    -0.76486    
  25.00  10.00    -0.71432    
  25.00  11.00    -0.62114    
  25.00  12.00    -0.49637    
  25.00  13.00    -0.36242    
  25.00  14.00    -0.24609    
  25.00  15.00    -0.16954    
  25.00  16.00    -0.14224    
  25.00  17.00    -0.15656    
  25.00  18.00    -0.18870    
  25.00  19.00    -0.20548    
  25.00  20.00    -0.17495    
  25.00  21.00    -0.77882E-01
  25.00  22.00     0.83666E-01
  25.00  23.00     0.28395    
  25.00  24.00     0.47870    
  25.00  25.00     0.61704    
  25.00  26.00     0.65711    
  25.00  27.00     0.58070    
  25.00  28.00     0.40226    
  25.00  29.00     0.16889    
  25.00  30.00    -0.49622E-01
  25.00  31.00    -0.17849    
  25.00  32.00    -0.15881    
  25.00  33.00     0.34408E-01
  25.00  34.00     0.38253    
  25.00  35.00     0.82523    
  25.00  36.00      1.2742    
  25.00  37.00      1.6351    
  25.00  38.00      1.8322    
  25.00  39.00      1.8286    
  25.00  40.00      1.6359    
  25.00  41.00      1.3111    
  25.00  42.00     0.94161    
  25.00  43.00     0.62100    
  25.00  44.00     0.42487    
  25.00  45.00     0.39145    
  25.00  46.00     0.51292    
  25.00  47.00     0.74059    
  25.00  48.00      1.0000    
  25.00  49.00      1.2132    
  25.00  50.00      1.3199    
  25.00  51.00      1.2933    
  25.00  52.00      1.1441    
  25.00  53.00     0.91431    
  25.00  54.00     0.66234    
  25.00  55.00     0.44441    
  25.00  56.00     0.29917    
  25.00  57.00     0.23839    
  25.00  58.00     0.24743    
  25.00  59.00     0.29371    
  25.00  60.00     0.34040    
  25.00  61.00     0.35964    
  25.00  62.00     0.34191    
  25.00  63.00     0.29759    
  25.00  64.00     0.25229    
  25.00  65.00     0.23570    
  25.00  66.00     0.27090    
  25.00  67.00     0.36554    
  25.00  68.00     0.50876    
  25.00  69.00     0.67607    
  25.00  70.00     0.83591    
  25.00  71.00     0.96009    
  25.00  72.00      1.0348    
  25.00  73.00      1.0606    
  25.00  74.00      1.0521    
  25.00  75.00      1.0306    
  25.00  76.00      1.0151    
  25.00  77.00      1.0156    
  25.00  78.00      1.0273    
  25.00  79.00      1.0352    
  25.00  80.00      1.0179    
  25.00  81.00     0.95832    
  25.00  82.00     0.85163    
  25.00  83.00     0.70598    
  25.00  84.00     0.54466    
  25.00  85.00     0.39861    
  25.00  86.00     0.29568    
  25.00  87.00     0.25427    
  25.00  88.00     0.27476    
  25.00  89.00     0.34492    
  26.00 -89.00     0.82577    
  26.00 -88.00     0.67380    
  26.00 -87.00     0.57454    
  26.00 -86.00     0.56605    
  26.00 -85.00     0.65345    
  26.00 -84.00     0.81640    
  26.00 -83.00      1.0093    
  26.00 -82.00      1.1682    
  26.00 -81.00      1.2387    
  26.00 -80.00      1.1844    
  26.00 -79.00      1.0011    
  26.00 -78.00     0.71745    
  26.00 -77.00     0.38976    
  26.00 -76.00     0.86086E-01
  26.00 -75.00    -0.13029    
  26.00 -74.00    -0.21759    
  26.00 -73.00    -0.16915    
  26.00 -72.00    -0.98834E-02
  26.00 -71.00     0.20651    
  26.00 -70.00     0.41438    
  26.00 -69.00     0.55096    
  26.00 -68.00     0.57378    
  26.00 -67.00     0.47025    
  26.00 -66.00     0.25838    
  26.00 -65.00    -0.16976E-01
  26.00 -64.00    -0.29902    
  26.00 -63.00    -0.53072    
  26.00 -62.00    -0.67088    
  26.00 -61.00    -0.70135    
  26.00 -60.00    -0.63028    
  26.00 -59.00    -0.48776    
  26.00 -58.00    -0.31647    
  26.00 -57.00    -0.16038    
  26.00 -56.00    -0.54398E-01
  26.00 -55.00    -0.16432E-01
  26.00 -54.00    -0.45363E-01
  26.00 -53.00    -0.12329    
  26.00 -52.00    -0.22217    
  26.00 -51.00    -0.31126    
  26.00 -50.00    -0.36546    
  26.00 -49.00    -0.37045    
  26.00 -48.00    -0.32526    
  26.00 -47.00    -0.24116    
  26.00 -46.00    -0.13804    
  26.00 -45.00    -0.39692E-01
  26.00 -44.00     0.31260E-01
  26.00 -43.00     0.57322E-01
  26.00 -42.00     0.28003E-01
  26.00 -41.00    -0.59460E-01
  26.00 -40.00    -0.20119    
  26.00 -39.00    -0.38792    
  26.00 -38.00    -0.60664    
  26.00 -37.00    -0.84184    
  26.00 -36.00     -1.0764    
  26.00 -35.00     -1.2925    
  26.00 -34.00     -1.4727    
  26.00 -33.00     -1.6014    
  26.00 -32.00     -1.6670    
  26.00 -31.00     -1.6637    
  26.00 -30.00     -1.5939    
  26.00 -29.00     -1.4682    
  26.00 -28.00     -1.3052    
  26.00 -27.00     -1.1284    
  26.00 -26.00    -0.96320    
  26.00 -25.00    -0.83167    
  26.00 -24.00    -0.74907    
  26.00 -23.00    -0.72083    
  26.00 -22.00    -0.74180    
  26.00 -21.00    -0.79764    
  26.00 -20.00    -0.86822    
  26.00 -19.00    -0.93205    
  26.00 -18.00    -0.97095    
  26.00 -17.00    -0.97378    
  26.00 -16.00    -0.93855    
  26.00 -15.00    -0.87250    
  26.00 -14.00    -0.79034    
  26.00 -13.00    -0.71103    
  26.00 -12.00    -0.65397    
  26.00 -11.00    -0.63530    
  26.00 -10.00    -0.66491    
  26.00  -9.00    -0.74467    
  26.00  -8.00    -0.86808    
  26.00  -7.00     -1.0212    
  26.00  -6.00     -1.1846    
  26.00  -5.00     -1.3367    
  26.00  -4.00     -1.4567    
  26.00  -3.00     -1.5284    
  26.00  -2.00     -1.5427    
  26.00  -1.00     -1.4996    
  26.00   0.00     -1.4083    
  26.00   1.00     -1.2849    
  26.00   2.00     -1.1498    
  26.00   3.00     -1.0225    
  26.00   4.00    -0.91758    
  26.00   5.00    -0.84071    
  26.00   6.00    -0.78788    
  26.00   7.00    -0.74664    
  26.00   8.00    -0.70016    
  26.00   9.00    -0.63283    
  26.00  10.00    -0.53581    
  26.00  11.00    -0.41074    
  26.00  12.00    -0.27025    
  26.00  13.00    -0.13485    
  26.00  14.00    -0.26659E-01
  26.00  15.00     0.37992E-01
  26.00  16.00     0.54979E-01
  26.00  17.00     0.35331E-01
  26.00  18.00     0.33973E-02
  26.00  19.00    -0.97846E-02
  26.00  20.00     0.23739E-01
  26.00  21.00     0.11879    
  26.00  22.00     0.27005    
  26.00  23.00     0.45082    
  26.00  24.00     0.61859    
  26.00  25.00     0.72658    
  26.00  26.00     0.73811    
  26.00  27.00     0.63972    
  26.00  28.00     0.44867    
  26.00  29.00     0.21196    
  26.00  30.00    -0.37307E-02
  26.00  31.00    -0.12904    
  26.00  32.00    -0.11126    
  26.00  33.00     0.69331E-01
  26.00  34.00     0.39130    
  26.00  35.00     0.79491    
  26.00  36.00      1.1958    
  26.00  37.00      1.5061    
  26.00  38.00      1.6576    
  26.00  39.00      1.6199    
  26.00  40.00      1.4090    
  26.00  41.00      1.0832    
  26.00  42.00     0.72761    
  26.00  43.00     0.43129    
  26.00  44.00     0.26403    
  26.00  45.00     0.25845    
  26.00  46.00     0.40266    
  26.00  47.00     0.64599    
  26.00  48.00     0.91424    
  26.00  49.00      1.1313    
  26.00  50.00      1.2398    
  26.00  51.00      1.2152    
