 -94.00 -22.00    -0.13831    
 -94.00 -21.00    -0.23415    
 -94.00 -20.00    -0.27577    
 -94.00 -19.00    -0.23662    
 -94.00 -18.00    -0.11395    
 -94.00 -17.00     0.68922E-01
 -94.00 -16.00     0.26774    
 -94.00 -15.00     0.42841    
 -94.00 -14.00     0.50122    
 -94.00 -13.00     0.45439    
 -94.00 -12.00     0.28345    
 -94.00 -11.00     0.13579E-01
 -94.00 -10.00    -0.30542    
 -94.00  -9.00    -0.61062    
 -94.00  -8.00    -0.84073    
 -94.00  -7.00    -0.95060    
 -94.00  -6.00    -0.92159    
 -94.00  -5.00    -0.76534    
 -94.00  -4.00    -0.52012    
 -94.00  -3.00    -0.24091    
 -94.00  -2.00     0.14203E-01
 -94.00  -1.00     0.19762    
 -94.00   0.00     0.28240    
 -94.00   1.00     0.26667    
 -94.00   2.00     0.17149    
 -94.00   3.00     0.33056E-01
 -94.00   4.00    -0.10807    
 -94.00   5.00    -0.21786    
 -94.00   6.00    -0.27670    
 -94.00   7.00    -0.28245    
 -94.00   8.00    -0.24824    
 -94.00   9.00    -0.19612    
 -94.00  10.00    -0.14876    
 -94.00  11.00    -0.12203    
 -94.00  12.00    -0.12046    
 -94.00  13.00    -0.13696    
 -94.00  14.00    -0.15657    
 -94.00  15.00    -0.16266    
 -94.00  16.00    -0.14346    
 -94.00  17.00    -0.96763E-01
 -94.00  18.00    -0.31011E-01
 -94.00  19.00     0.37311E-01
 -94.00  20.00     0.89248E-01
 -94.00  21.00     0.10995    
 -94.00  22.00     0.94038E-01
 -94.00  23.00     0.47914E-01
 -94.00  24.00    -0.11837E-01
 -94.00  25.00    -0.63519E-01
 -94.00  26.00    -0.87303E-01
 -94.00  27.00    -0.71862E-01
 -94.00  28.00    -0.18506E-01
 -94.00  29.00     0.58613E-01
 -94.00  30.00     0.13642    
 -94.00  31.00     0.18985    
 -94.00  32.00     0.19968    
 -94.00  33.00     0.15896    
 -94.00  34.00     0.75832E-01
 -94.00  35.00    -0.27963E-01
 -94.00  36.00    -0.12272    
 -94.00  37.00    -0.17882    
 -94.00  38.00    -0.17492    
 -94.00  39.00    -0.10380    
 -94.00  40.00     0.25579E-01
 -94.00  41.00     0.19067    
 -94.00  42.00     0.36139    
 -94.00  43.00     0.50805    
 -94.00  44.00     0.60881    
 -94.00  45.00     0.65448    
 -94.00  46.00     0.64965    
 -94.00  47.00     0.61000    
 -94.00  48.00     0.55676    
 -94.00  49.00     0.51032    
 -94.00  50.00     0.48496    
 -94.00  51.00     0.48574    
 -94.00  52.00     0.50908    
 -94.00  53.00     0.54510    
 -94.00  54.00     0.58273    
 -94.00  55.00     0.61306    
 -94.00  56.00     0.63311    
 -94.00  57.00     0.64511    
 -94.00  58.00     0.65516    
 -94.00  59.00     0.66940    
 -94.00  60.00     0.69074    
 -94.00  61.00     0.71601    
 -94.00  62.00     0.73611    
 -94.00  63.00     0.73778    
 -94.00  64.00     0.70772    
 -94.00  65.00     0.63702    
 -94.00  66.00     0.52473    
 -94.00  67.00     0.37957    
 -94.00  68.00     0.21913    
 -94.00  69.00     0.66550E-01
 -94.00  70.00    -0.53861E-01
 -94.00  71.00    -0.12354    
 -94.00  72.00    -0.13130    
 -94.00  73.00    -0.78753E-01
 -94.00  74.00     0.22012E-01
 -94.00  75.00     0.14959    
 -94.00  76.00     0.27855    
 -94.00  77.00     0.38242    
 -94.00  78.00     0.44089    
 -94.00  79.00     0.44108    
 -94.00  80.00     0.37890    
 -94.00  81.00     0.26025    
 -94.00  82.00     0.99194E-01
 -94.00  83.00    -0.87725E-01
 -94.00  84.00    -0.27962    
 -94.00  85.00    -0.45947    
 -94.00  86.00    -0.61247    
 -94.00  87.00    -0.72807    
 -94.00  88.00    -0.80115    
 -94.00  89.00    -0.83065    
 -93.00 -89.00    -0.10133    
 -93.00 -88.00    -0.28739    
 -93.00 -87.00    -0.44256    
 -93.00 -86.00    -0.52230    
 -93.00 -85.00    -0.50698    
 -93.00 -84.00    -0.40515    
 -93.00 -83.00    -0.24896    
 -93.00 -82.00    -0.82448E-01
 -93.00 -81.00     0.48660E-01
 -93.00 -80.00     0.11626    
 -93.00 -79.00     0.11386    
 -93.00 -78.00     0.60772E-01
 -93.00 -77.00    -0.68784E-02
 -93.00 -76.00    -0.47985E-01
 -93.00 -75.00    -0.31484E-01
 -93.00 -74.00     0.53663E-01
 -93.00 -73.00     0.19356    
 -93.00 -72.00     0.35261    
 -93.00 -71.00     0.48343    
 -93.00 -70.00     0.54229    
 -93.00 -69.00     0.50051    
 -93.00 -68.00     0.35500    
 -93.00 -67.00     0.12830    
 -93.00 -66.00    -0.13710    
 -93.00 -65.00    -0.39038    
 -93.00 -64.00    -0.58696    
 -93.00 -63.00    -0.69836    
 -93.00 -62.00    -0.71963    
 -93.00 -61.00    -0.66727    
 -93.00 -60.00    -0.57271    
 -93.00 -59.00    -0.47055    
 -93.00 -58.00    -0.38779    
 -93.00 -57.00    -0.33624    
 -93.00 -56.00    -0.31073    
 -93.00 -55.00    -0.29304    
 -93.00 -54.00    -0.26026    
 -93.00 -53.00    -0.19440    
 -93.00 -52.00    -0.90465E-01
 -93.00 -51.00     0.40812E-01
 -93.00 -50.00     0.17513    
 -93.00 -49.00     0.28237    
 -93.00 -48.00     0.33535    
 -93.00 -47.00     0.31943    
 -93.00 -46.00     0.23718    
 -93.00 -45.00     0.10840    
 -93.00 -44.00    -0.35752E-01
 -93.00 -43.00    -0.16159    
 -93.00 -42.00    -0.24319    
 -93.00 -41.00    -0.26975    
 -93.00 -40.00    -0.24842    
 -93.00 -39.00    -0.20169    
 -93.00 -38.00    -0.15973    
 -93.00 -37.00    -0.15053    
 -93.00 -36.00    -0.19070    
 -93.00 -35.00    -0.27974    
 -93.00 -34.00    -0.39969    
 -93.00 -33.00    -0.52024    
 -93.00 -32.00    -0.60784    
 -93.00 -31.00    -0.63593    
 -93.00 -30.00    -0.59338    
 -93.00 -29.00    -0.48840    
 -93.00 -28.00    -0.34673    
 -93.00 -27.00    -0.20453    
 -93.00 -26.00    -0.97956E-01
 -93.00 -25.00    -0.52511E-01
 -93.00 -24.00    -0.75240E-01
 -93.00 -23.00    -0.15214    
 -93.00 -22.00    -0.25167    
 -93.00 -21.00    -0.33352    
 -93.00 -20.00    -0.36028    
 -93.00 -19.00    -0.30866    
 -93.00 -18.00    -0.17726    
 -93.00 -17.00     0.11543E-01
 -93.00 -16.00     0.21632    
 -93.00 -15.00     0.38662    
 -93.00 -14.00     0.47602    
 -93.00 -13.00     0.45446    
 -93.00 -12.00     0.31687    
 -93.00 -11.00     0.85396E-01
 -93.00 -10.00    -0.19518    
 -93.00  -9.00    -0.46786    
 -93.00  -8.00    -0.67701    
 -93.00  -7.00    -0.78163    
 -93.00  -6.00    -0.76479    
 -93.00  -5.00    -0.63707    
 -93.00  -4.00    -0.43298    
 -93.00  -3.00    -0.20157    
 -93.00  -2.00     0.62217E-02
 -93.00  -1.00     0.15011    
 -93.00   0.00     0.20964    
 -93.00   1.00     0.18764    
 -93.00   2.00     0.10736    
 -93.00   3.00     0.43617E-02
 -93.00   4.00    -0.84459E-01
 -93.00   5.00    -0.13139    
 -93.00   6.00    -0.12514    
 -93.00   7.00    -0.72885E-01
 -93.00   8.00     0.33013E-02
 -93.00   9.00     0.74165E-01
 -93.00  10.00     0.11282    
 -93.00  11.00     0.10311    
 -93.00  12.00     0.44354E-01
 -93.00  13.00    -0.48822E-01
 -93.00  14.00    -0.15140    
 -93.00  15.00    -0.23590    
 -93.00  16.00    -0.28083    
 -93.00  17.00    -0.27700    
 -93.00  18.00    -0.22984    
 -93.00  19.00    -0.15705    
 -93.00  20.00    -0.82462E-01
 -93.00  21.00    -0.28190E-01
 -93.00  22.00    -0.75611E-02
 -93.00  23.00    -0.21101E-01
 -93.00  24.00    -0.56826E-01
 -93.00  25.00    -0.94692E-01
 -93.00  26.00    -0.11370    
 -93.00  27.00    -0.99331E-01
 -93.00  28.00    -0.48889E-01
 -93.00  29.00     0.27074E-01
 -93.00  30.00     0.10771    
 -93.00  31.00     0.16835    
 -93.00  32.00     0.18848    
 -93.00  33.00     0.15874    
 -93.00  34.00     0.84592E-01
 -93.00  35.00    -0.14327E-01
 -93.00  36.00    -0.10927    
 -93.00  37.00    -0.17023    
 -93.00  38.00    -0.17433    
 -93.00  39.00    -0.11218    
 -93.00  40.00     0.95130E-02
 -93.00  41.00     0.16988    
 -93.00  42.00     0.33971    
 -93.00  43.00     0.48924    
 -93.00  44.00     0.59582    
 -93.00  45.00     0.64899    
 -93.00  46.00     0.65193    
 -93.00  47.00     0.61914    
 -93.00  48.00     0.57097    
 -93.00  49.00     0.52732    
 -93.00  50.00     0.50218    
 -93.00  51.00     0.50065    
 -93.00  52.00     0.51930    
 -93.00  53.00     0.54861    
 -93.00  54.00     0.57820    
 -93.00  55.00     0.59995    
 -93.00  56.00     0.61197    
 -93.00  57.00     0.61751    
 -93.00  58.00     0.62359    
 -93.00  59.00     0.63691    
 -93.00  60.00     0.66029    
 -93.00  61.00     0.68995    
 -93.00  62.00     0.71575    
 -93.00  63.00     0.72316    
 -93.00  64.00     0.69793    
 -93.00  65.00     0.63056    
 -93.00  66.00     0.52022    
 -93.00  67.00     0.37653    
 -93.00  68.00     0.21812    
 -93.00  69.00     0.69370E-01
 -93.00  70.00    -0.44654E-01
 -93.00  71.00    -0.10532    
 -93.00  72.00    -0.10229    
 -93.00  73.00    -0.38814E-01
 -93.00  74.00     0.71099E-01
 -93.00  75.00     0.20415    
 -93.00  76.00     0.33356    
 -93.00  77.00     0.43252    
 -93.00  78.00     0.48128    
 -93.00  79.00     0.46854    
 -93.00  80.00     0.39236    
 -93.00  81.00     0.26078    
 -93.00  82.00     0.89568E-01
 -93.00  83.00    -0.10354    
 -93.00  84.00    -0.29764    
 -93.00  85.00    -0.47617    
 -93.00  86.00    -0.62559    
 -93.00  87.00    -0.73673    
 -93.00  88.00    -0.80559    
 -93.00  89.00    -0.83208    
 -92.00 -89.00    -0.99273E-01
 -92.00 -88.00    -0.28477    
 -92.00 -87.00    -0.44131    
 -92.00 -86.00    -0.52478    
 -92.00 -85.00    -0.51513    
 -92.00 -84.00    -0.42043    
 -92.00 -83.00    -0.27145    
 -92.00 -82.00    -0.11151    
 -92.00 -81.00     0.15166E-01
 -92.00 -80.00     0.81222E-01
 -92.00 -79.00     0.80730E-01
 -92.00 -78.00     0.32850E-01
 -92.00 -77.00    -0.26863E-01
 -92.00 -76.00    -0.57994E-01
 -92.00 -75.00    -0.30213E-01
 -92.00 -74.00     0.66616E-01
 -92.00 -73.00     0.21808    
 -92.00 -72.00     0.38811    
 -92.00 -71.00     0.52893    
 -92.00 -70.00     0.59641    
 -92.00 -69.00     0.56137    
 -92.00 -68.00     0.42006    
 -92.00 -67.00     0.19455    
 -92.00 -66.00    -0.72890E-01
 -92.00 -65.00    -0.33098    
 -92.00 -64.00    -0.53424    
 -92.00 -63.00    -0.65268    
 -92.00 -62.00    -0.67966    
 -92.00 -61.00    -0.63017    
 -92.00 -60.00    -0.53505    
 -92.00 -59.00    -0.42937    
 -92.00 -58.00    -0.34192    
 -92.00 -57.00    -0.28721    
 -92.00 -56.00    -0.26313    
 -92.00 -55.00    -0.25396    
 -92.00 -54.00    -0.23792    
 -92.00 -53.00    -0.19613    
 -92.00 -52.00    -0.12069    
 -92.00 -51.00    -0.17732E-01
 -92.00 -50.00     0.93573E-01
 -92.00 -49.00     0.18748    
 -92.00 -48.00     0.23942    
 -92.00 -47.00     0.23459    
 -92.00 -46.00     0.17266    
 -92.00 -45.00     0.68271E-01
 -92.00 -44.00    -0.53461E-01
 -92.00 -43.00    -0.16417    
 -92.00 -42.00    -0.24117    
 -92.00 -41.00    -0.27386    
 -92.00 -40.00    -0.26643    
 -92.00 -39.00    -0.23602    
 -92.00 -38.00    -0.20656    
 -92.00 -37.00    -0.20062    
 -92.00 -36.00    -0.23179    
 -92.00 -35.00    -0.29992    
 -92.00 -34.00    -0.39076    
 -92.00 -33.00    -0.48018    
 -92.00 -32.00    -0.54170    
 -92.00 -31.00    -0.55492    
 -92.00 -30.00    -0.51237    
 -92.00 -29.00    -0.42253    
 -92.00 -28.00    -0.30806    
 -92.00 -27.00    -0.19961    
 -92.00 -26.00    -0.12692    
 -92.00 -25.00    -0.10987    
 -92.00 -24.00    -0.15204    
 -92.00 -23.00    -0.23874    
 -92.00 -22.00    -0.34040    
 -92.00 -21.00    -0.42039    
 -92.00 -20.00    -0.44524    
 -92.00 -19.00    -0.39456    
 -92.00 -18.00    -0.26774    
 -92.00 -17.00    -0.85507E-01
 -92.00 -16.00     0.11426    
 -92.00 -15.00     0.28555    
 -92.00 -14.00     0.38583    
 -92.00 -13.00     0.38720    
 -92.00 -12.00     0.28408    
 -92.00 -11.00     0.95365E-01
 -92.00 -10.00    -0.13961    
 -92.00  -9.00    -0.37042    
 -92.00  -8.00    -0.54778    
 -92.00  -7.00    -0.63550    
 -92.00  -6.00    -0.61909    
 -92.00  -5.00    -0.50867    
 -92.00  -4.00    -0.33560    
 -92.00  -3.00    -0.14367    
 -92.00  -2.00     0.22691E-01
 -92.00  -1.00     0.12999    
 -92.00   0.00     0.16385    
 -92.00   1.00     0.13175    
 -92.00   2.00     0.59535E-01
 -92.00   3.00    -0.17080E-01
 -92.00   4.00    -0.63595E-01
 -92.00   5.00    -0.57130E-01
 -92.00   6.00     0.67934E-02
 -92.00   7.00     0.11301    
 -92.00   8.00     0.23128    
 -92.00   9.00     0.32535    
 -92.00  10.00     0.36365    
 -92.00  11.00     0.32873    
 -92.00  12.00     0.22239    
 -92.00  13.00     0.65336E-01
 -92.00  14.00    -0.10863    
 -92.00  15.00    -0.26208    
 -92.00  16.00    -0.36420    
 -92.00  17.00    -0.39884    
 -92.00  18.00    -0.36806    
 -92.00  19.00    -0.29030    
 -92.00  20.00    -0.19383    
 -92.00  21.00    -0.10776    
 -92.00  22.00    -0.53317E-01
 -92.00  23.00    -0.38078E-01
 -92.00  24.00    -0.54847E-01
 -92.00  25.00    -0.85317E-01
 -92.00  26.00    -0.10720    
 -92.00  27.00    -0.10238    
 -92.00  28.00    -0.63489E-01
 -92.00  29.00     0.33569E-02
 -92.00  30.00     0.80340E-01
 -92.00  31.00     0.14381    
 -92.00  32.00     0.17221    
 -92.00  33.00     0.15359    
 -92.00  34.00     0.90155E-01
 -92.00  35.00    -0.14357E-02
 -92.00  36.00    -0.94372E-01
 -92.00  37.00    -0.15912    
 -92.00  38.00    -0.17181    
 -92.00  39.00    -0.12100    
 -92.00  40.00    -0.10856E-01
 -92.00  41.00     0.14013    
 -92.00  42.00     0.30451    
 -92.00  43.00     0.45328    
 -92.00  44.00     0.56364    
 -92.00  45.00     0.62420    
 -92.00  46.00     0.63667    
 -92.00  47.00     0.61397    
 -92.00  48.00     0.57492    
 -92.00  49.00     0.53827    
 -92.00  50.00     0.51707    
 -92.00  51.00     0.51608    
 -92.00  52.00     0.53183    
 -92.00  53.00     0.55529    
 -92.00  54.00     0.57695    
 -92.00  55.00     0.58985    
 -92.00  56.00     0.59339    
 -92.00  57.00     0.59205    
 -92.00  58.00     0.59382    
 -92.00  59.00     0.60585    
 -92.00  60.00     0.63079    
 -92.00  61.00     0.66416    
 -92.00  62.00     0.69480    
 -92.00  63.00     0.70693    
 -92.00  64.00     0.68553    
 -92.00  65.00     0.62069    
 -92.00  66.00     0.51187    
 -92.00  67.00     0.36963    
 -92.00  68.00     0.21367    
 -92.00  69.00     0.69466E-01
 -92.00  70.00    -0.37349E-01
 -92.00  71.00    -0.88181E-01
 -92.00  72.00    -0.73915E-01
 -92.00  73.00     0.69613E-03
 -92.00  74.00     0.11966    
 -92.00  75.00     0.25791    
 -92.00  76.00     0.38740    
 -92.00  77.00     0.48117    
 -92.00  78.00     0.52013    
 -92.00  79.00     0.49455    
 -92.00  80.00     0.40465    
 -92.00  81.00     0.26051    
 -92.00  82.00     0.79536E-01
 -92.00  83.00    -0.11944    
 -92.00  84.00    -0.31554    
 -92.00  85.00    -0.49267    
 -92.00  86.00    -0.63851    
 -92.00  87.00    -0.74526    
 -92.00  88.00    -0.80997    
 -92.00  89.00    -0.83350    
 -91.00 -89.00    -0.97163E-01
 -91.00 -88.00    -0.28205    
 -91.00 -87.00    -0.43992    
 -91.00 -86.00    -0.52712    
 -91.00 -85.00    -0.52312    
 -91.00 -84.00    -0.43546    
 -91.00 -83.00    -0.29346    
 -91.00 -82.00    -0.13971    
 -91.00 -81.00    -0.16917E-01
 -91.00 -80.00     0.48279E-01
 -91.00 -79.00     0.50378E-01
 -91.00 -78.00     0.82651E-02
 -91.00 -77.00    -0.43182E-01
 -91.00 -76.00    -0.64343E-01
 -91.00 -75.00    -0.25601E-01
 -91.00 -74.00     0.82369E-01
 -91.00 -73.00     0.24483    
 -91.00 -72.00     0.42542    
 -91.00 -71.00     0.57627    
 -91.00 -70.00     0.65289    
 -91.00 -69.00     0.62563    
 -91.00 -68.00     0.48997    
 -91.00 -67.00     0.26721    
 -91.00 -66.00    -0.82599E-03
 -91.00 -65.00    -0.26275    
 -91.00 -64.00    -0.47217    
 -91.00 -63.00    -0.59774    
 -91.00 -62.00    -0.63090    
 -91.00 -61.00    -0.58491    
 -91.00 -60.00    -0.48974    
 -91.00 -59.00    -0.38073    
 -91.00 -58.00    -0.28841    
 -91.00 -57.00    -0.23017    
 -91.00 -56.00    -0.20722    
 -91.00 -55.00    -0.20666    
 -91.00 -54.00    -0.20809    
 -91.00 -53.00    -0.19177    
 -91.00 -52.00    -0.14665    
 -91.00 -51.00    -0.73770E-01
 -91.00 -50.00     0.13481E-01
 -91.00 -49.00     0.94344E-01
 -91.00 -48.00     0.14729    
 -91.00 -47.00     0.15739    
 -91.00 -46.00     0.12100    
 -91.00 -45.00     0.46739E-01
 -91.00 -44.00    -0.47419E-01
 -91.00 -43.00    -0.13959    
 -91.00 -42.00    -0.21123    
 -91.00 -41.00    -0.25235    
 -91.00 -40.00    -0.26396    
 -91.00 -39.00    -0.25708    
 -91.00 -38.00    -0.24807    
 -91.00 -37.00    -0.25260    
 -91.00 -36.00    -0.27984    
 -91.00 -35.00    -0.32890    
 -91.00 -34.00    -0.38872    
 -91.00 -33.00    -0.44148    
 -91.00 -32.00    -0.46845    
 -91.00 -31.00    -0.45644    
 -91.00 -30.00    -0.40290    
 -91.00 -29.00    -0.31778    
 -91.00 -28.00    -0.22168    
 -91.00 -27.00    -0.14050    
 -91.00 -26.00    -0.98040E-01
 -91.00 -25.00    -0.10875    
 -91.00 -24.00    -0.17274    
 -91.00 -23.00    -0.27457    
 -91.00 -22.00    -0.38645    
 -91.00 -21.00    -0.47510    
 -91.00 -20.00    -0.51059    
 -91.00 -19.00    -0.47484    
 -91.00 -18.00    -0.36727    
 -91.00 -17.00    -0.20618    
 -91.00 -16.00    -0.25050E-01
 -91.00 -15.00     0.13534    
 -91.00 -14.00     0.23700    
 -91.00 -13.00     0.25461    
 -91.00 -12.00     0.18235    
 -91.00 -11.00     0.35970E-01
 -91.00 -10.00    -0.15066    
 -91.00  -9.00    -0.33376    
 -91.00  -8.00    -0.47056    
 -91.00  -7.00    -0.52995    
 -91.00  -6.00    -0.50030    
 -91.00  -5.00    -0.39205    
 -91.00  -4.00    -0.23450    
 -91.00  -3.00    -0.67568E-01
 -91.00  -2.00     0.69239E-01
 -91.00  -1.00     0.14763    
 -91.00   0.00     0.15809    
 -91.00   1.00     0.11209    
 -91.00   2.00     0.38227E-01
 -91.00   3.00    -0.26545E-01
 -91.00   4.00    -0.48231E-01
 -91.00   5.00    -0.63048E-02
 -91.00   6.00     0.99562E-01
 -91.00   7.00     0.24860    
 -91.00   8.00     0.40421    
 -91.00   9.00     0.52390    
 -91.00  10.00     0.57124    
 -91.00  11.00     0.52623    
 -91.00  12.00     0.39127    
 -91.00  13.00     0.19092    
 -91.00  14.00    -0.34444E-01
 -91.00  15.00    -0.23926    
 -91.00  16.00    -0.38460    
 -91.00  17.00    -0.44787    
 -91.00  18.00    -0.42770    
 -91.00  19.00    -0.34275    
 -91.00  20.00    -0.22507    
 -91.00  21.00    -0.11009    
 -91.00  22.00    -0.26385E-01
 -91.00  23.00     0.11751E-01
 -91.00  24.00     0.69256E-02
 -91.00  25.00    -0.24156E-01
 -91.00  26.00    -0.57709E-01
 -91.00  27.00    -0.71686E-01
 -91.00  28.00    -0.53518E-01
 -91.00  29.00    -0.43021E-02
 -91.00  30.00     0.61792E-01
 -91.00  31.00     0.12259    
 -91.00  32.00     0.15569    
 -91.00  33.00     0.14642    
 -91.00  34.00     0.93279E-01
 -91.00  35.00     0.92275E-02
 -91.00  36.00    -0.81624E-01
 -91.00  37.00    -0.15089    
 -91.00  38.00    -0.17412    
 -91.00  39.00    -0.13788    
 -91.00  40.00    -0.43479E-01
 -91.00  41.00     0.93601E-01
 -91.00  42.00     0.24841    
 -91.00  43.00     0.39351    
 -91.00  44.00     0.50647    
 -91.00  45.00     0.57523    
 -91.00  46.00     0.59993    
 -91.00  47.00     0.59149    
 -91.00  48.00     0.56658    
 -91.00  49.00     0.54204    
 -91.00  50.00     0.52944    
 -91.00  51.00     0.53269    
 -91.00  52.00     0.54813    
 -91.00  53.00     0.56726    
 -91.00  54.00     0.58160    
 -91.00  55.00     0.58566    
 -91.00  56.00     0.58034    
 -91.00  57.00     0.57154    
 -91.00  58.00     0.56827    
 -91.00  59.00     0.57815    
 -91.00  60.00     0.60358    
 -91.00  61.00     0.63939    
 -91.00  62.00     0.67341    
 -91.00  63.00     0.68879    
 -91.00  64.00     0.66987    
 -91.00  65.00     0.60655    
 -91.00  66.00     0.49870    
 -91.00  67.00     0.35791    
 -91.00  68.00     0.20485    
 -91.00  69.00     0.65984E-01
 -91.00  70.00    -0.32730E-01
 -91.00  71.00    -0.72876E-01
 -91.00  72.00    -0.46862E-01
 -91.00  73.00     0.39103E-01
 -91.00  74.00     0.16704    
 -91.00  75.00     0.31022    
 -91.00  76.00     0.43947    
 -91.00  77.00     0.52785    
 -91.00  78.00     0.55698    
 -91.00  79.00     0.51875    
 -91.00  80.00     0.41552    
 -91.00  81.00     0.25929    
 -91.00  82.00     0.69007E-01
 -91.00  83.00    -0.13545    
 -91.00  84.00    -0.33332    
 -91.00  85.00    -0.50897    
 -91.00  86.00    -0.65124    
 -91.00  87.00    -0.75363    
 -91.00  88.00    -0.81427    
 -91.00  89.00    -0.83490    
 -90.00 -89.00    -0.94999E-01
 -90.00 -88.00    -0.27921    
 -90.00 -87.00    -0.43840    
 -90.00 -86.00    -0.52929    
 -90.00 -85.00    -0.53092    
 -90.00 -84.00    -0.45019    
 -90.00 -83.00    -0.31493    
 -90.00 -82.00    -0.16696    
 -90.00 -81.00    -0.47439E-01
 -90.00 -80.00     0.17610E-01
 -90.00 -79.00     0.22998E-01
 -90.00 -78.00    -0.12787E-01
 -90.00 -77.00    -0.55679E-01
 -90.00 -76.00    -0.66957E-01
 -90.00 -75.00    -0.17733E-01
 -90.00 -74.00     0.10061    
 -90.00 -73.00     0.27319    
 -90.00 -72.00     0.46353    
 -90.00 -71.00     0.62402    
 -90.00 -70.00     0.70983    
 -90.00 -69.00     0.69094    
 -90.00 -68.00     0.56193    
 -90.00 -67.00     0.34316    
 -90.00 -66.00     0.75687E-01
 -90.00 -65.00    -0.18930    
 -90.00 -64.00    -0.40456    
 -90.00 -63.00    -0.53748    
 -90.00 -62.00    -0.57741    
 -90.00 -61.00    -0.53566    
 -90.00 -60.00    -0.44097    
 -90.00 -59.00    -0.32870    
 -90.00 -58.00    -0.23105    
 -90.00 -57.00    -0.16829    
 -90.00 -56.00    -0.14522    
 -90.00 -55.00    -0.15205    
 -90.00 -54.00    -0.17005    
 -90.00 -53.00    -0.17885    
 -90.00 -52.00    -0.16420    
 -90.00 -51.00    -0.12184    
 -90.00 -50.00    -0.58946E-01
 -90.00 -49.00     0.91548E-02
 -90.00 -48.00     0.64362E-01
 -90.00 -47.00     0.91763E-01
 -90.00 -46.00     0.84184E-01
 -90.00 -45.00     0.43766E-01
 -90.00 -44.00    -0.19400E-01
 -90.00 -43.00    -0.90781E-01
 -90.00 -42.00    -0.15665    
 -90.00 -41.00    -0.20806    
 -90.00 -40.00    -0.24291    
 -90.00 -39.00    -0.26559    
 -90.00 -38.00    -0.28412    
 -90.00 -37.00    -0.30621    
 -90.00 -36.00    -0.33551    
 -90.00 -35.00    -0.36945    
 -90.00 -34.00    -0.39954    
 -90.00 -33.00    -0.41397    
 -90.00 -32.00    -0.40186    
 -90.00 -31.00    -0.35766    
 -90.00 -30.00    -0.28437    
 -90.00 -29.00    -0.19420    
 -90.00 -28.00    -0.10655    
 -90.00 -27.00    -0.43335E-01
 -90.00 -26.00    -0.23183E-01
 -90.00 -25.00    -0.55820E-01
 -90.00 -24.00    -0.13847    
 -90.00 -23.00    -0.25534    
 -90.00 -22.00    -0.38061    
 -90.00 -21.00    -0.48430    
 -90.00 -20.00    -0.53969    
 -90.00 -19.00    -0.53041    
 -90.00 -18.00    -0.45517    
 -90.00 -17.00    -0.32894    
 -90.00 -16.00    -0.17993    
 -90.00 -15.00    -0.42991E-01
 -90.00 -14.00     0.49027E-01
 -90.00 -13.00     0.73762E-01
 -90.00 -12.00     0.25459E-01
 -90.00 -11.00    -0.83012E-01
 -90.00 -10.00    -0.22296    
 -90.00  -9.00    -0.35692    
 -90.00  -8.00    -0.44825    
 -90.00  -7.00    -0.47078    
 -90.00  -6.00    -0.41584    
 -90.00  -5.00    -0.29476    
 -90.00  -4.00    -0.13596    
 -90.00  -3.00     0.22781E-01
 -90.00  -2.00     0.14476    
 -90.00  -1.00     0.20470    
 -90.00   0.00     0.19605    
 -90.00   1.00     0.13309    
 -90.00   2.00     0.47006E-01
 -90.00   3.00    -0.23011E-01
 -90.00   4.00    -0.41362E-01
 -90.00   5.00     0.13039E-01
 -90.00   6.00     0.13966    
 -90.00   7.00     0.31524    
 -90.00   8.00     0.49921    
 -90.00   9.00     0.64423    
 -90.00  10.00     0.70906    
 -90.00  11.00     0.67003    
 -90.00  12.00     0.52804    
 -90.00  13.00     0.30882    
 -90.00  14.00     0.56586E-01
 -90.00  15.00    -0.17736    
 -90.00  16.00    -0.34773    
 -90.00  17.00    -0.42643    
 -90.00  18.00    -0.40881    
 -90.00  19.00    -0.31332    
 -90.00  20.00    -0.17488    
 -90.00  21.00    -0.34252E-01
 -90.00  22.00     0.73534E-01
 -90.00  23.00     0.12820    
 -90.00  24.00     0.12822    
 -90.00  25.00     0.88993E-01
 -90.00  26.00     0.35966E-01
 -90.00  27.00    -0.47004E-02
 -90.00  28.00    -0.15015E-01
 -90.00  29.00     0.92632E-02
 -90.00  30.00     0.57942E-01
 -90.00  31.00     0.11061    
 -90.00  32.00     0.14416    
 -90.00  33.00     0.14114    
 -90.00  34.00     0.96058E-01
 -90.00  35.00     0.17777E-01
 -90.00  36.00    -0.72802E-01
 -90.00  37.00    -0.14887    
 -90.00  38.00    -0.18567    
 -90.00  39.00    -0.16774    
 -90.00  40.00    -0.93265E-01
 -90.00  41.00     0.25802E-01
 -90.00  42.00     0.16763    
 -90.00  43.00     0.30693    
 -90.00  44.00     0.42208    
 -90.00  45.00     0.50052    
 -90.00  46.00     0.54069    
 -90.00  47.00     0.55109    
 -90.00  48.00     0.54564    
 -90.00  49.00     0.53863    
 -90.00  50.00     0.53958    
 -90.00  51.00     0.55115    
 -90.00  52.00     0.56925    
 -90.00  53.00     0.58599    
 -90.00  54.00     0.59396    
 -90.00  55.00     0.58943    
 -90.00  56.00     0.57496    
 -90.00  57.00     0.55806    
 -90.00  58.00     0.54879    
 -90.00  59.00     0.55527    
 -90.00  60.00     0.57968    
 -90.00  61.00     0.61617    
 -90.00  62.00     0.65166    
 -90.00  63.00     0.66841    
 -90.00  64.00     0.65034    
 -90.00  65.00     0.58735    
 -90.00  66.00     0.47987    
 -90.00  67.00     0.34046    
 -90.00  68.00     0.19082    
 -90.00  69.00     0.58143E-01
 -90.00  70.00    -0.31518E-01
 -90.00  71.00    -0.60111E-01
 -90.00  72.00    -0.21797E-01
 -90.00  73.00     0.75757E-01
 -90.00  74.00     0.21260    
 -90.00  75.00     0.36045    
 -90.00  76.00     0.48920    
 -90.00  77.00     0.57203    
 -90.00  78.00     0.59141    
 -90.00  79.00     0.54081    
 -90.00  80.00     0.42472    
 -90.00  81.00     0.25695    
 -90.00  82.00     0.57892E-01
 -90.00  83.00    -0.15162    
 -90.00  84.00    -0.35099    
 -90.00  85.00    -0.52507    
 -90.00  86.00    -0.66376    
 -90.00  87.00    -0.76186    
 -90.00  88.00    -0.81850    
 -90.00  89.00    -0.83627    
 -89.00 -89.00    -0.92782E-01
 -89.00 -88.00    -0.27627    
 -89.00 -87.00    -0.43674    
 -89.00 -86.00    -0.53128    
 -89.00 -85.00    -0.53850    
 -89.00 -84.00    -0.46456    
 -89.00 -83.00    -0.33577    
 -89.00 -82.00    -0.19314    
 -89.00 -81.00    -0.76267E-01
 -89.00 -80.00    -0.10627E-01
 -89.00 -79.00    -0.12442E-02
 -89.00 -78.00    -0.30155E-01
 -89.00 -77.00    -0.64243E-01
 -89.00 -76.00    -0.65817E-01
 -89.00 -75.00    -0.67476E-02
 -89.00 -74.00     0.12096    
 -89.00 -73.00     0.30247    
 -89.00 -72.00     0.50139    
 -89.00 -71.00     0.67065    
 -89.00 -70.00     0.76522    
 -89.00 -69.00     0.75480    
 -89.00 -68.00     0.63300    
 -89.00 -67.00     0.41905    
 -89.00 -66.00     0.15301    
 -89.00 -65.00    -0.11445    
 -89.00 -64.00    -0.33542    
 -89.00 -63.00    -0.47600    
 -89.00 -62.00    -0.52338    
 -89.00 -61.00    -0.48662    
 -89.00 -60.00    -0.39295    
 -89.00 -59.00    -0.27741    
 -89.00 -58.00    -0.17365    
 -89.00 -57.00    -0.10485    
 -89.00 -56.00    -0.79499E-01
 -89.00 -55.00    -0.91272E-01
 -89.00 -54.00    -0.12347    
 -89.00 -53.00    -0.15545    
 -89.00 -52.00    -0.16994    
 -89.00 -51.00    -0.15746    
 -89.00 -50.00    -0.11880    
 -89.00 -49.00    -0.63556E-01
 -89.00 -48.00    -0.60562E-02
 -89.00 -47.00     0.39064E-01
 -89.00 -46.00     0.61199E-01
 -89.00 -45.00     0.55910E-01
 -89.00 -44.00     0.25122E-01
 -89.00 -43.00    -0.24458E-01
 -89.00 -42.00    -0.84415E-01
 -89.00 -41.00    -0.14725    
 -89.00 -40.00    -0.20796    
 -89.00 -39.00    -0.26434    
 -89.00 -38.00    -0.31580    
 -89.00 -37.00    -0.36161    
 -89.00 -36.00    -0.39926    
 -89.00 -35.00    -0.42384    
 -89.00 -34.00    -0.42871    
 -89.00 -33.00    -0.40749    
 -89.00 -32.00    -0.35670    
 -89.00 -31.00    -0.27816    
 -89.00 -30.00    -0.18034    
 -89.00 -29.00    -0.77939E-01
 -89.00 -28.00     0.10443E-01
 -89.00 -27.00     0.66121E-01
 -89.00 -26.00     0.74768E-01
 -89.00 -25.00     0.30374E-01
 -89.00 -24.00    -0.62424E-01
 -89.00 -23.00    -0.18836    
 -89.00 -22.00    -0.32419    
 -89.00 -21.00    -0.44351    
 -89.00 -20.00    -0.52267    
 -89.00 -19.00    -0.54651    
 -89.00 -18.00    -0.51229    
 -89.00 -17.00    -0.43085    
 -89.00 -16.00    -0.32437    
 -89.00 -15.00    -0.22115    
 -89.00 -14.00    -0.14853    
 -89.00 -13.00    -0.12566    
 -89.00 -12.00    -0.15806    
 -89.00 -11.00    -0.23551    
 -89.00 -10.00    -0.33408    
 -89.00  -9.00    -0.42202    
 -89.00  -8.00    -0.46813    
 -89.00  -7.00    -0.45048    
 -89.00  -6.00    -0.36303    
 -89.00  -5.00    -0.21817    
 -89.00  -4.00    -0.44303E-01
 -89.00  -3.00     0.12137    
 -89.00  -2.00     0.24281    
 -89.00  -1.00     0.29536    
 -89.00   0.00     0.27321    
 -89.00   1.00     0.19187    
 -89.00   2.00     0.84502E-01
 -89.00   3.00    -0.68374E-02
 -89.00   4.00    -0.43137E-01
 -89.00   5.00     0.30689E-04
 -89.00   6.00     0.12457    
 -89.00   7.00     0.30801    
 -89.00   8.00     0.50853    
 -89.00   9.00     0.67562    
 -89.00  10.00     0.76365    
 -89.00  11.00     0.74447    
 -89.00  12.00     0.61552    
 -89.00  13.00     0.40110    
 -89.00  14.00     0.14642    
 -89.00  15.00    -0.94098E-01
 -89.00  16.00    -0.27077    
 -89.00  17.00    -0.35120    
 -89.00  18.00    -0.32776    
 -89.00  19.00    -0.21821    
 -89.00  20.00    -0.59443E-01
 -89.00  21.00     0.10366    
 -89.00  22.00     0.23077    
 -89.00  23.00     0.29656    
 -89.00  24.00     0.29600    
 -89.00  25.00     0.24344    
 -89.00  26.00     0.16606    
 -89.00  27.00     0.94056E-01
 -89.00  28.00     0.50717E-01
 -89.00  29.00     0.45570E-01
 -89.00  30.00     0.72426E-01
 -89.00  31.00     0.11272    
 -89.00  32.00     0.14276    
 -89.00  33.00     0.14236    
 -89.00  34.00     0.10202    
 -89.00  35.00     0.26354E-01
 -89.00  36.00    -0.67103E-01
 -89.00  37.00    -0.15329    
 -89.00  38.00    -0.20723    
 -89.00  39.00    -0.21141    
 -89.00  40.00    -0.16063    
 -89.00  41.00    -0.62972E-01
 -89.00  42.00     0.63275E-01
 -89.00  43.00     0.19538    
 -89.00  44.00     0.31283    
 -89.00  45.00     0.40264    
 -89.00  46.00     0.46142    
 -89.00  47.00     0.49491    
 -89.00  48.00     0.51381    
 -89.00  49.00     0.52930    
 -89.00  50.00     0.54837    
 -89.00  51.00     0.57211    
 -89.00  52.00     0.59580    
 -89.00  53.00     0.61212    
 -89.00  54.00     0.61484    
 -89.00  55.00     0.60214    
 -89.00  56.00     0.57836    
 -89.00  57.00     0.55273    
 -89.00  58.00     0.53641    
 -89.00  59.00     0.53805    
 -89.00  60.00     0.55963    
 -89.00  61.00     0.59471    
 -89.00  62.00     0.62945    
 -89.00  63.00     0.64545    
 -89.00  64.00     0.62638    
 -89.00  65.00     0.56238    
 -89.00  66.00     0.45461    
 -89.00  67.00     0.31656    
 -89.00  68.00     0.17087    
 -89.00  69.00     0.45281E-01
 -89.00  70.00    -0.34338E-01
 -89.00  71.00    -0.50520E-01
 -89.00  72.00     0.67406E-03
 -89.00  73.00     0.11005    
 -89.00  74.00     0.25573    
 -89.00  75.00     0.40802    
 -89.00  76.00     0.53603    
 -89.00  77.00     0.61322    
 -89.00  78.00     0.62299    
 -89.00  79.00     0.56041    
 -89.00  80.00     0.43202    
 -89.00  81.00     0.25335    
 -89.00  82.00     0.46112E-01
 -89.00  83.00    -0.16798    
 -89.00  84.00    -0.36856    
 -89.00  85.00    -0.54094    
 -89.00  86.00    -0.67605    
 -89.00  87.00    -0.76992    
 -89.00  88.00    -0.82266    
 -89.00  89.00    -0.83762    
 -88.00 -89.00    -0.90512E-01
 -88.00 -88.00    -0.27322    
 -88.00 -87.00    -0.43492    
 -88.00 -86.00    -0.53308    
 -88.00 -85.00    -0.54583    
 -88.00 -84.00    -0.47852    
 -88.00 -83.00    -0.35594    
 -88.00 -82.00    -0.21816    
 -88.00 -81.00    -0.10329    
 -88.00 -80.00    -0.36307E-01
 -88.00 -79.00    -0.22218E-01
 -88.00 -78.00    -0.43723E-01
 -88.00 -77.00    -0.68808E-01
 -88.00 -76.00    -0.60949E-01
 -88.00 -75.00     0.71691E-02
 -88.00 -74.00     0.14301    
 -88.00 -73.00     0.33195    
 -88.00 -72.00     0.53790    
 -88.00 -71.00     0.71459    
 -88.00 -70.00     0.81701    
 -88.00 -69.00     0.81466    
 -88.00 -68.00     0.70016    
 -88.00 -67.00     0.49148    
 -88.00 -66.00     0.22746    
 -88.00 -65.00    -0.42066E-01
 -88.00 -64.00    -0.26872    
 -88.00 -63.00    -0.41730    
 -88.00 -62.00    -0.47280    
 -88.00 -61.00    -0.44180    
 -88.00 -60.00    -0.34964    
 -88.00 -59.00    -0.23071    
 -88.00 -58.00    -0.11985    
 -88.00 -57.00    -0.43021E-01
 -88.00 -56.00    -0.12519E-01
 -88.00 -55.00    -0.25786E-01
 -88.00 -54.00    -0.68583E-01
 -88.00 -53.00    -0.12046    
 -88.00 -52.00    -0.16161    
 -88.00 -51.00    -0.17759    
 -88.00 -50.00    -0.16289    
 -88.00 -49.00    -0.12123    
 -88.00 -48.00    -0.62897E-01
 -88.00 -47.00    -0.18260E-02
 -88.00 -46.00     0.48324E-01
 -88.00 -45.00     0.76858E-01
 -88.00 -44.00     0.77702E-01
 -88.00 -43.00     0.49676E-01
 -88.00 -42.00    -0.43446E-02
 -88.00 -41.00    -0.78663E-01
 -88.00 -40.00    -0.16585    
 -88.00 -39.00    -0.25750    
 -88.00 -38.00    -0.34475    
 -88.00 -37.00    -0.41860    
 -88.00 -36.00    -0.47032    
 -88.00 -35.00    -0.49229    
 -88.00 -34.00    -0.47913    
 -88.00 -33.00    -0.42907    
 -88.00 -32.00    -0.34510    
 -88.00 -31.00    -0.23549    
 -88.00 -30.00    -0.11345    
 -88.00 -29.00     0.43173E-02
 -88.00 -28.00     0.10002    
 -88.00 -27.00     0.15781    
 -88.00 -26.00     0.16679    
 -88.00 -25.00     0.12350    
 -88.00 -24.00     0.33144E-01
 -88.00 -23.00    -0.90778E-01
 -88.00 -22.00    -0.22857    
 -88.00 -21.00    -0.35791    
 -88.00 -20.00    -0.45834    
 -88.00 -19.00    -0.51558    
 -88.00 -18.00    -0.52486    
 -88.00 -17.00    -0.49219    
 -88.00 -16.00    -0.43314    
 -88.00 -15.00    -0.36908    
 -88.00 -14.00    -0.32172    
 -88.00 -13.00    -0.30704    
 -88.00 -12.00    -0.33042    
 -88.00 -11.00    -0.38425    
 -88.00 -10.00    -0.44904    
 -88.00  -9.00    -0.49807    
 -88.00  -8.00    -0.50465    
 -88.00  -7.00    -0.45003    
 -88.00  -6.00    -0.32991    
 -88.00  -5.00    -0.15732    
 -88.00  -4.00     0.39155E-01
 -88.00  -3.00     0.22188    
 -88.00  -2.00     0.35380    
 -88.00  -1.00     0.40874    
 -88.00   0.00     0.37945    
 -88.00   1.00     0.28078    
 -88.00   2.00     0.14687    
 -88.00   3.00     0.22578E-01
 -88.00   4.00    -0.48554E-01
 -88.00   5.00    -0.36672E-01
 -88.00   6.00     0.65299E-01
 -88.00   7.00     0.23860    
 -88.00   8.00     0.44275    
 -88.00   9.00     0.62592    
 -88.00  10.00     0.73887    
 -88.00  11.00     0.74855    
 -88.00  12.00     0.64754    
 -88.00  13.00     0.45656    
 -88.00  14.00     0.21929    
 -88.00  15.00    -0.91050E-02
 -88.00  16.00    -0.17649    
 -88.00  17.00    -0.24733    
 -88.00  18.00    -0.21138    
 -88.00  19.00    -0.85353E-01
 -88.00  20.00     0.92893E-01
 -88.00  21.00     0.27557    
 -88.00  22.00     0.41832    
 -88.00  23.00     0.49175    
 -88.00  24.00     0.48796    
 -88.00  25.00     0.42050    
 -88.00  26.00     0.31809    
 -88.00  27.00     0.21456    
 -88.00  28.00     0.13802    
 -88.00  29.00     0.10285    
 -88.00  30.00     0.10659    
 -88.00  31.00     0.13243    
 -88.00  32.00     0.15616    
 -88.00  33.00     0.15506    
 -88.00  34.00     0.11582    
 -88.00  35.00     0.39029E-01
 -88.00  36.00    -0.61031E-01
 -88.00  37.00    -0.16097    
 -88.00  38.00    -0.23555    
 -88.00  39.00    -0.26510    
 -88.00  40.00    -0.24098    
 -88.00  41.00    -0.16720    
 -88.00  42.00    -0.58302E-01
 -88.00  43.00     0.65774E-01
 -88.00  44.00     0.18576    
 -88.00  45.00     0.28828    
 -88.00  46.00     0.36807    
 -88.00  47.00     0.42782    
 -88.00  48.00     0.47471    
 -88.00  49.00     0.51644    
 -88.00  50.00     0.55714    
 -88.00  51.00     0.59605    
 -88.00  52.00     0.62771    
 -88.00  53.00     0.64535    
 -88.00  54.00     0.64388    
 -88.00  55.00     0.62352    
 -88.00  56.00     0.59041    
 -88.00  57.00     0.55555    
 -88.00  58.00     0.53121    
 -88.00  59.00     0.52656    
 -88.00  60.00     0.54342    
 -88.00  61.00     0.57487    
 -88.00  62.00     0.60649    
 -88.00  63.00     0.61945    
 -88.00  64.00     0.59745    
 -88.00  65.00     0.53108    
 -88.00  66.00     0.42236    
 -88.00  67.00     0.28564    
 -88.00  68.00     0.14447    
 -88.00  69.00     0.26880E-01
 -88.00  70.00    -0.41691E-01
 -88.00  71.00    -0.44643E-01
 -88.00  72.00     0.20021E-01
 -88.00  73.00     0.14144    
 -88.00  74.00     0.29587    
 -88.00  75.00     0.45237    
 -88.00  76.00     0.57943    
 -88.00  77.00     0.65094    
 -88.00  78.00     0.65134    
 -88.00  79.00     0.57723    
 -88.00  80.00     0.43719    
 -88.00  81.00     0.24835    
 -88.00  82.00     0.33589E-01
 -88.00  83.00    -0.18456    
 -88.00  84.00    -0.38603    
 -88.00  85.00    -0.55659    
 -88.00  86.00    -0.68812    
 -88.00  87.00    -0.77780    
 -88.00  88.00    -0.82673    
 -88.00  89.00    -0.83895    
 -87.00 -89.00    -0.88189E-01
 -87.00 -88.00    -0.27006    
 -87.00 -87.00    -0.43295    
 -87.00 -86.00    -0.53467    
 -87.00 -85.00    -0.55289    
 -87.00 -84.00    -0.49203    
 -87.00 -83.00    -0.37538    
 -87.00 -82.00    -0.24195    
 -87.00 -81.00    -0.12841    
 -87.00 -80.00    -0.59330E-01
 -87.00 -79.00    -0.39829E-01
 -87.00 -78.00    -0.53424E-01
 -87.00 -77.00    -0.69356E-01
 -87.00 -76.00    -0.52428E-01
 -87.00 -75.00     0.23794E-01
 -87.00 -74.00     0.16632    
 -87.00 -73.00     0.36089    
 -87.00 -72.00     0.57197    
 -87.00 -71.00     0.75432    
 -87.00 -70.00     0.86320    
 -87.00 -69.00     0.86803    
 -87.00 -68.00     0.76048    
 -87.00 -67.00     0.55715    
 -87.00 -66.00     0.29547    
 -87.00 -65.00     0.24186E-01
 -87.00 -64.00    -0.20818    
 -87.00 -63.00    -0.36506    
 -87.00 -62.00    -0.42927    
 -87.00 -61.00    -0.40472    
 -87.00 -60.00    -0.31449    
 -87.00 -59.00    -0.19197    
 -87.00 -58.00    -0.72866E-01
 -87.00 -57.00     0.14250E-01
 -87.00 -56.00     0.53240E-01
 -87.00 -55.00     0.42624E-01
 -87.00 -54.00    -0.62840E-02
 -87.00 -53.00    -0.73863E-01
 -87.00 -52.00    -0.13832    
 -87.00 -51.00    -0.18083    
 -87.00 -50.00    -0.18990    
 -87.00 -49.00    -0.16335    
 -87.00 -48.00    -0.10717    
 -87.00 -47.00    -0.34102E-01
 -87.00 -46.00     0.39826E-01
 -87.00 -45.00     0.98375E-01
 -87.00 -44.00     0.12808    
 -87.00 -43.00     0.12024    
 -87.00 -42.00     0.72223E-01
 -87.00 -41.00    -0.12360E-01
 -87.00 -40.00    -0.12425    
 -87.00 -39.00    -0.24968    
 -87.00 -38.00    -0.37244    
 -87.00 -37.00    -0.47599    
 -87.00 -36.00    -0.54589    
 -87.00 -35.00    -0.57187    
 -87.00 -34.00    -0.54943    
 -87.00 -33.00    -0.48049    
 -87.00 -32.00    -0.37324    
 -87.00 -31.00    -0.24098    
 -87.00 -30.00    -0.10032    
 -87.00 -29.00     0.31100E-01
 -87.00 -28.00     0.13685    
 -87.00 -27.00     0.20384    
 -87.00 -26.00     0.22396    
 -87.00 -25.00     0.19515    
 -87.00 -24.00     0.12180    
 -87.00 -23.00     0.14232E-01
 -87.00 -22.00    -0.11255    
 -87.00 -21.00    -0.24109    
 -87.00 -20.00    -0.35436    
 -87.00 -19.00    -0.43884    
 -87.00 -18.00    -0.48732    
 -87.00 -17.00    -0.50052    
 -87.00 -16.00    -0.48702    
 -87.00 -15.00    -0.46119    
 -87.00 -14.00    -0.43929    
 -87.00 -13.00    -0.43457    
 -87.00 -12.00    -0.45271    
 -87.00 -11.00    -0.48896    
 -87.00 -10.00    -0.52818    
 -87.00  -9.00    -0.54814    
 -87.00  -8.00    -0.52561    
 -87.00  -7.00    -0.44374    
 -87.00  -6.00    -0.29856    
 -87.00  -5.00    -0.10262    
 -87.00  -4.00     0.11591    
 -87.00  -3.00     0.31883    
 -87.00  -2.00     0.46716    
 -87.00  -1.00     0.53171    
 -87.00   0.00     0.50188    
 -87.00   1.00     0.39003    
 -87.00   2.00     0.22974    
 -87.00   3.00     0.67917E-01
 -87.00   4.00    -0.47255E-01
 -87.00   5.00    -0.79495E-01
 -87.00   6.00    -0.14823E-01
 -87.00   7.00     0.13384    
 -87.00   8.00     0.32951    
 -87.00   9.00     0.52077    
 -87.00  10.00     0.65584    
 -87.00  11.00     0.69698    
 -87.00  12.00     0.63121    
 -87.00  13.00     0.47427    
 -87.00  14.00     0.26650    
 -87.00  15.00     0.61942E-01
 -87.00  16.00    -0.86419E-01
 -87.00  17.00    -0.14094    
 -87.00  18.00    -0.89127E-01
 -87.00  19.00     0.53734E-01
 -87.00  20.00     0.24967    
 -87.00  21.00     0.44918    
 -87.00  22.00     0.60506    
 -87.00  23.00     0.68486    
 -87.00  24.00     0.67834    
 -87.00  25.00     0.59828    
 -87.00  26.00     0.47461    
 -87.00  27.00     0.34406    
 -87.00  28.00     0.23873    
 -87.00  29.00     0.17709    
 -87.00  30.00     0.15985    
 -87.00  31.00     0.17173    
 -87.00  32.00     0.18805    
 -87.00  33.00     0.18388    
 -87.00  34.00     0.14256    
 -87.00  35.00     0.61117E-01
 -87.00  36.00    -0.49023E-01
 -87.00  37.00    -0.16588    
 -87.00  38.00    -0.26379    
 -87.00  39.00    -0.32096    
 -87.00  40.00    -0.32528    
 -87.00  41.00    -0.27675    
 -87.00  42.00    -0.18616    
 -87.00  43.00    -0.70631E-01
 -87.00  44.00     0.51874E-01
 -87.00  45.00     0.16758    
 -87.00  46.00     0.26938    
 -87.00  47.00     0.35682    
 -87.00  48.00     0.43342    
 -87.00  49.00     0.50323    
 -87.00  50.00     0.56740    
 -87.00  51.00     0.62316    
 -87.00  52.00     0.66425    
 -87.00  53.00     0.68434    
 -87.00  54.00     0.67955    
 -87.00  55.00     0.65203    
 -87.00  56.00     0.60974    
 -87.00  57.00     0.56541    
 -87.00  58.00     0.53229    
 -87.00  59.00     0.52008    
 -87.00  60.00     0.53045    
 -87.00  61.00     0.55613    
 -87.00  62.00     0.58229    
 -87.00  63.00     0.58997    
 -87.00  64.00     0.56312    
 -87.00  65.00     0.49302    
 -87.00  66.00     0.38270    
 -87.00  67.00     0.24733    
 -87.00  68.00     0.11127    
 -87.00  69.00     0.26041E-02
 -87.00  70.00    -0.53930E-01
 -87.00  71.00    -0.42888E-01
 -87.00  72.00     0.35807E-01
 -87.00  73.00     0.16943    
 -87.00  74.00     0.33252    
 -87.00  75.00     0.49297    
 -87.00  76.00     0.61893    
 -87.00  77.00     0.68477    
 -87.00  78.00     0.67608    
 -87.00  79.00     0.59100    
 -87.00  80.00     0.44005    
 -87.00  81.00     0.24182    
 -87.00  82.00     0.20258E-01
 -87.00  83.00    -0.20139    
 -87.00  84.00    -0.40339    
 -87.00  85.00    -0.57201    
 -87.00  86.00    -0.69995    
 -87.00  87.00    -0.78551    
 -87.00  88.00    -0.83072    
 -87.00  89.00    -0.84025    
 -86.00 -89.00    -0.85815E-01
 -86.00 -88.00    -0.26679    
 -86.00 -87.00    -0.43082    
 -86.00 -86.00    -0.53603    
 -86.00 -85.00    -0.55964    
 -86.00 -84.00    -0.50506    
 -86.00 -83.00    -0.39404    
 -86.00 -82.00    -0.26444    
 -86.00 -81.00    -0.15156    
 -86.00 -80.00    -0.79626E-01
 -86.00 -79.00    -0.54019E-01
 -86.00 -78.00    -0.59227E-01
 -86.00 -77.00    -0.65916E-01
 -86.00 -76.00    -0.40370E-01
 -86.00 -75.00     0.42877E-01
 -86.00 -74.00     0.19046    
 -86.00 -73.00     0.38857    
 -86.00 -72.00     0.60256    
 -86.00 -71.00     0.78838    
 -86.00 -70.00     0.90189    
 -86.00 -69.00     0.91256    
 -86.00 -68.00     0.81122    
 -86.00 -67.00     0.61303    
 -86.00 -66.00     0.35378    
 -86.00 -65.00     0.80994E-01
 -86.00 -64.00    -0.15702    
 -86.00 -63.00    -0.32238    
 -86.00 -62.00    -0.39572    
 -86.00 -61.00    -0.37816    
 -86.00 -60.00    -0.29018    
 -86.00 -59.00    -0.16385    
 -86.00 -58.00    -0.35343E-01
 -86.00 -57.00     0.64378E-01
 -86.00 -56.00     0.11536    
 -86.00 -55.00     0.11186    
 -86.00 -54.00     0.61797E-01
 -86.00 -53.00    -0.16722E-01
 -86.00 -52.00    -0.10067    
 -86.00 -51.00    -0.16754    
 -86.00 -50.00    -0.20036    
 -86.00 -49.00    -0.19120    
 -86.00 -48.00    -0.14155    
 -86.00 -47.00    -0.62326E-01
 -86.00 -46.00     0.28951E-01
 -86.00 -45.00     0.11155    
 -86.00 -44.00     0.16563    
 -86.00 -43.00     0.17568    
 -86.00 -42.00     0.13393    
 -86.00 -41.00     0.41672E-01
 -86.00 -40.00    -0.90693E-01
 -86.00 -39.00    -0.24520    
 -86.00 -38.00    -0.39959    
 -86.00 -37.00    -0.53117    
 -86.00 -36.00    -0.62080    
 -86.00 -35.00    -0.65608    
 -86.00 -34.00    -0.63316    
 -86.00 -33.00    -0.55687    
 -86.00 -32.00    -0.43918    
 -86.00 -31.00    -0.29669    
 -86.00 -30.00    -0.14760    
 -86.00 -29.00    -0.89951E-02
 -86.00 -28.00     0.10503    
 -86.00 -27.00     0.18448    
 -86.00 -26.00     0.22362    
 -86.00 -25.00     0.22090    
 -86.00 -24.00     0.17856    
 -86.00 -23.00     0.10243    
 -86.00 -22.00     0.16026E-02
 -86.00 -21.00    -0.11215    
 -86.00 -20.00    -0.22561    
 -86.00 -19.00    -0.32607    
 -86.00 -18.00    -0.40360    
 -86.00 -17.00    -0.45340    
 -86.00 -16.00    -0.47700    
 -86.00 -15.00    -0.48197    
 -86.00 -14.00    -0.47965    
 -86.00 -13.00    -0.48129    
 -86.00 -12.00    -0.49370    
 -86.00 -11.00    -0.51565    
 -86.00 -10.00    -0.53655    
 -86.00  -9.00    -0.53832    
 -86.00  -8.00    -0.50028    
 -86.00  -7.00    -0.40599    
 -86.00  -6.00    -0.25013    
 -86.00  -5.00    -0.43033E-01
 -86.00  -4.00     0.18893    
 -86.00  -3.00     0.40782    
 -86.00  -2.00     0.57281    
 -86.00  -1.00     0.65100    
 -86.00   0.00     0.62711    
 -86.00   1.00     0.50930    
 -86.00   2.00     0.32880    
 -86.00   3.00     0.13311    
 -86.00   4.00    -0.25945E-01
 -86.00   5.00    -0.10588    
 -86.00   6.00    -0.85330E-01
 -86.00   7.00     0.29725E-01
 -86.00   8.00     0.20723    
 -86.00   9.00     0.39772    
 -86.00  10.00     0.54813    
 -86.00  11.00     0.61678    
 -86.00  12.00     0.58527    
 -86.00  13.00     0.46388    
 -86.00  14.00     0.28869    
 -86.00  15.00     0.11142    
 -86.00  16.00    -0.15206E-01
 -86.00  17.00    -0.52244E-01
 -86.00  18.00     0.14772E-01
 -86.00  19.00     0.17222    
 -86.00  20.00     0.38275    
 -86.00  21.00     0.59619    
 -86.00  22.00     0.76359    
 -86.00  23.00     0.85023    
 -86.00  24.00     0.84403    
 -86.00  25.00     0.75690    
 -86.00  26.00     0.61937    
 -86.00  27.00     0.47014    
 -86.00  28.00     0.34424    
 -86.00  29.00     0.26318    
 -86.00  30.00     0.23012    
 -86.00  31.00     0.23093    
 -86.00  32.00     0.24057    
 -86.00  33.00     0.23228    
 -86.00  34.00     0.18671    
 -86.00  35.00     0.98003E-01
 -86.00  36.00    -0.24700E-01
 -86.00  37.00    -0.16044    
 -86.00  38.00    -0.28300    
 -86.00  39.00    -0.36850    
 -86.00  40.00    -0.40159    
 -86.00  41.00    -0.37848    
 -86.00  42.00    -0.30642    
 -86.00  43.00    -0.19983    
 -86.00  44.00    -0.75421E-01
 -86.00  45.00     0.52703E-01
 -86.00  46.00     0.17567    
 -86.00  47.00     0.29001    
 -86.00  48.00     0.39569    
 -86.00  49.00     0.49311    
 -86.00  50.00     0.58053    
 -86.00  51.00     0.65313    
 -86.00  52.00     0.70387    
 -86.00  53.00     0.72679    
 -86.00  54.00     0.71917    
 -86.00  55.00     0.68497    
 -86.00  56.00     0.63384    
 -86.00  57.00     0.58008    
 -86.00  58.00     0.53781    
 -86.00  59.00     0.51712    
 -86.00  60.00     0.51958    
 -86.00  61.00     0.53761    
 -86.00  62.00     0.55619    
 -86.00  63.00     0.55652    
 -86.00  64.00     0.52304    
 -86.00  65.00     0.44796    
 -86.00  66.00     0.33546    
 -86.00  67.00     0.20152    
 -86.00  68.00     0.71171E-01
 -86.00  69.00    -0.27685E-01
 -86.00  70.00    -0.71239E-01
 -86.00  71.00    -0.45522E-01
 -86.00  72.00     0.47702E-01
 -86.00  73.00     0.19364    
 -86.00  74.00     0.36523    
 -86.00  75.00     0.52938    
 -86.00  76.00     0.65407    
 -86.00  77.00     0.71430    
 -86.00  78.00     0.69687    
 -86.00  79.00     0.60146    
 -86.00  80.00     0.44041    
 -86.00  81.00     0.23364    
 -86.00  82.00     0.60580E-02
 -86.00  83.00    -0.21850    
 -86.00  84.00    -0.42066    
 -86.00  85.00    -0.58719    
 -86.00  86.00    -0.71152    
 -86.00  87.00    -0.79304    
 -86.00  88.00    -0.83461    
 -86.00  89.00    -0.84152    
 -85.00 -89.00    -0.83388E-01
 -85.00 -88.00    -0.26340    
 -85.00 -87.00    -0.42851    
 -85.00 -86.00    -0.53716    
