  13.00 -34.00    -0.13980    
  13.00 -33.00     0.12878    
  13.00 -32.00     0.33553    
  13.00 -31.00     0.44065    
  13.00 -30.00     0.42689    
  13.00 -29.00     0.30149    
  13.00 -28.00     0.92950E-01
  13.00 -27.00    -0.15637    
  13.00 -26.00    -0.39967    
  13.00 -25.00    -0.59514    
  13.00 -24.00    -0.71344    
  13.00 -23.00    -0.74192    
  13.00 -22.00    -0.68528    
  13.00 -21.00    -0.56279    
  13.00 -20.00    -0.40324    
  13.00 -19.00    -0.23873    
  13.00 -18.00    -0.98635E-01
  13.00 -17.00    -0.47334E-02
  13.00 -16.00     0.31734E-01
  13.00 -15.00     0.10886E-01
  13.00 -14.00    -0.56997E-01
  13.00 -13.00    -0.15428    
  13.00 -12.00    -0.25977    
  13.00 -11.00    -0.35288    
  13.00 -10.00    -0.41737    
  13.00  -9.00    -0.44415    
  13.00  -8.00    -0.43272    
  13.00  -7.00    -0.39089    
  13.00  -6.00    -0.33285    
  13.00  -5.00    -0.27600    
  13.00  -4.00    -0.23690    
  13.00  -3.00    -0.22726    
  13.00  -2.00    -0.25083    
  13.00  -1.00    -0.30190    
  13.00   0.00    -0.36580    
  13.00   1.00    -0.42171    
  13.00   2.00    -0.44717    
  13.00   3.00    -0.42337    
  13.00   4.00    -0.34030    
  13.00   5.00    -0.20024    
  13.00   6.00    -0.18733E-01
  13.00   7.00     0.17740    
  13.00   8.00     0.35494    
  13.00   9.00     0.48108    
  13.00  10.00     0.53073    
  13.00  11.00     0.49258    
  13.00  12.00     0.37246    
  13.00  13.00     0.19290    
  13.00  14.00    -0.11199E-01
  13.00  15.00    -0.20004    
  13.00  16.00    -0.33791    
  13.00  17.00    -0.40158    
  13.00  18.00    -0.38607    
  13.00  19.00    -0.30621    
  13.00  20.00    -0.19343    
  13.00  21.00    -0.88382E-01
  13.00  22.00    -0.31006E-01
  13.00  23.00    -0.50419E-01
  13.00  24.00    -0.15709    
  13.00  25.00    -0.33931    
  13.00  26.00    -0.56492    
  13.00  27.00    -0.78806    
  13.00  28.00    -0.95924    
  13.00  29.00     -1.0366    
  13.00  30.00    -0.99518    
  13.00  31.00    -0.83292    
  13.00  32.00    -0.57061    
  13.00  33.00    -0.24727    
  13.00  34.00     0.88625E-01
  13.00  35.00     0.38959    
  13.00  36.00     0.61870    
  13.00  37.00     0.75612    
  13.00  38.00     0.80120    
  13.00  39.00     0.76996    
  13.00  40.00     0.68904    
  13.00  41.00     0.58783    
  13.00  42.00     0.49103    
  13.00  43.00     0.41344    
  13.00  44.00     0.35799    
  13.00  45.00     0.31727    
  13.00  46.00     0.27795    
  13.00  47.00     0.22568    
  13.00  48.00     0.15045    
  13.00  49.00     0.49627E-01
  13.00  50.00    -0.71405E-01
  13.00  51.00    -0.20092    
  13.00  52.00    -0.32432    
  13.00  53.00    -0.42821    
  13.00  54.00    -0.50349    
  13.00  55.00    -0.54762    
  13.00  56.00    -0.56451    
  13.00  57.00    -0.56257    
  13.00  58.00    -0.55227    
  13.00  59.00    -0.54262    
  13.00  60.00    -0.53941    
  13.00  61.00    -0.54325    
  13.00  62.00    -0.55025    
  13.00  63.00    -0.55336    
  13.00  64.00    -0.54441    
  13.00  65.00    -0.51712    
  13.00  66.00    -0.46866    
  13.00  67.00    -0.40154    
  13.00  68.00    -0.32353    
  13.00  69.00    -0.24672    
  13.00  70.00    -0.18597    
  13.00  71.00    -0.15681    
  13.00  72.00    -0.17025    
  13.00  73.00    -0.23529    
  13.00  74.00    -0.35166    
  13.00  75.00    -0.51252    
  13.00  76.00    -0.70460    
  13.00  77.00    -0.90780    
  13.00  78.00     -1.1016    
  13.00  79.00     -1.2651    
  13.00  80.00     -1.3826    
  13.00  81.00     -1.4447    
  13.00  82.00     -1.4482    
  13.00  83.00     -1.3990    
  13.00  84.00     -1.3070    
  13.00  85.00     -1.1853    
  13.00  86.00     -1.0487    
  13.00  87.00    -0.90894    
  13.00  88.00    -0.77440    
  13.00  89.00    -0.65122    
  14.00 -89.00    -0.34510    
  14.00 -88.00    -0.57812    
  14.00 -87.00    -0.72889    
  14.00 -86.00    -0.77351    
  14.00 -85.00    -0.71494    
  14.00 -84.00    -0.57301    
  14.00 -83.00    -0.38714    
  14.00 -82.00    -0.20062    
  14.00 -81.00    -0.56895E-01
  14.00 -80.00     0.16265E-01
  14.00 -79.00     0.67521E-02
  14.00 -78.00    -0.76383E-01
  14.00 -77.00    -0.21017    
  14.00 -76.00    -0.36199    
  14.00 -75.00    -0.50014    
  14.00 -74.00    -0.60243    
  14.00 -73.00    -0.65936    
  14.00 -72.00    -0.67571    
  14.00 -71.00    -0.66807    
  14.00 -70.00    -0.65667    
  14.00 -69.00    -0.65895    
  14.00 -68.00    -0.68226    
  14.00 -67.00    -0.72089    
  14.00 -66.00    -0.75746    
  14.00 -65.00    -0.76809    
  14.00 -64.00    -0.73029    
  14.00 -63.00    -0.63139    
  14.00 -62.00    -0.47591    
  14.00 -61.00    -0.28631    
  14.00 -60.00    -0.10090    
  14.00 -59.00     0.35267E-01
  14.00 -58.00     0.81121E-01
  14.00 -57.00     0.11203E-01
  14.00 -56.00    -0.17563    
  14.00 -55.00    -0.45310    
  14.00 -54.00    -0.77121    
  14.00 -53.00     -1.0658    
  14.00 -52.00     -1.2730    
  14.00 -51.00     -1.3435    
  14.00 -50.00     -1.2548    
  14.00 -49.00     -1.0175    
  14.00 -48.00    -0.67364    
  14.00 -47.00    -0.28806    
  14.00 -46.00     0.65705E-01
  14.00 -45.00     0.32152    
  14.00 -44.00     0.43527    
  14.00 -43.00     0.39407    
  14.00 -42.00     0.21823    
  14.00 -41.00    -0.44138E-01
  14.00 -40.00    -0.32860    
  14.00 -39.00    -0.56927    
  14.00 -38.00    -0.71304    
  14.00 -37.00    -0.73057    
  14.00 -36.00    -0.62136    
  14.00 -35.00    -0.41219    
  14.00 -34.00    -0.14991    
  14.00 -33.00     0.10964    
  14.00 -32.00     0.31380    
  14.00 -31.00     0.42351    
  14.00 -30.00     0.42015    
  14.00 -29.00     0.30759    
  14.00 -28.00     0.10958    
  14.00 -27.00    -0.13645    
  14.00 -26.00    -0.38752    
  14.00 -25.00    -0.60334    
  14.00 -24.00    -0.75311    
  14.00 -23.00    -0.81976    
  14.00 -22.00    -0.80142    
  14.00 -21.00    -0.71002    
  14.00 -20.00    -0.56783    
  14.00 -19.00    -0.40283    
  14.00 -18.00    -0.24356    
  14.00 -17.00    -0.11452    
  14.00 -16.00    -0.32585E-01
  14.00 -15.00    -0.49436E-02
  14.00 -14.00    -0.28686E-01
  14.00 -13.00    -0.92126E-01
  14.00 -12.00    -0.17756    
  14.00 -11.00    -0.26499    
  14.00 -10.00    -0.33627    
  14.00  -9.00    -0.37870    
  14.00  -8.00    -0.38758    
  14.00  -7.00    -0.36698    
  14.00  -6.00    -0.32849    
  14.00  -5.00    -0.28823    
  14.00  -4.00    -0.26257    
  14.00  -3.00    -0.26366    
  14.00  -2.00    -0.29572    
  14.00  -1.00    -0.35319    
  14.00   0.00    -0.42119    
  14.00   1.00    -0.47858    
  14.00   2.00    -0.50281    
  14.00   3.00    -0.47569    
  14.00   4.00    -0.38861    
  14.00   5.00    -0.24583    
  14.00   6.00    -0.64944E-01
  14.00   7.00     0.12585    
  14.00   8.00     0.29332    
  14.00   9.00     0.40641    
  14.00  10.00     0.44349    
  14.00  11.00     0.39782    
  14.00  12.00     0.27999    
  14.00  13.00     0.11634    
  14.00  14.00    -0.56400E-01
  14.00  15.00    -0.19913    
  14.00  16.00    -0.27947    
  14.00  17.00    -0.27959    
  14.00  18.00    -0.20105    
  14.00  19.00    -0.65216E-01
  14.00  20.00     0.90997E-01
  14.00  21.00     0.22325    
  14.00  22.00     0.29003    
  14.00  23.00     0.26265    
  14.00  24.00     0.13268    
  14.00  25.00    -0.85047E-01
  14.00  26.00    -0.35464    
  14.00  27.00    -0.62624    
  14.00  28.00    -0.84633    
  14.00  29.00    -0.96904    
  14.00  30.00    -0.96578    
  14.00  31.00    -0.83115    
  14.00  32.00    -0.58368    
  14.00  33.00    -0.26155    
  14.00  34.00     0.85783E-01
  14.00  35.00     0.40784    
  14.00  36.00     0.66295    
  14.00  37.00     0.82548    
  14.00  38.00     0.88899    
  14.00  39.00     0.86492    
  14.00  40.00     0.77764    
  14.00  41.00     0.65721    
  14.00  42.00     0.53188    
  14.00  43.00     0.42226    
  14.00  44.00     0.33807    
  14.00  45.00     0.27811    
  14.00  46.00     0.23327    
  14.00  47.00     0.19046    
  14.00  48.00     0.13763    
  14.00  49.00     0.67456E-01
  14.00  50.00    -0.21102E-01
  14.00  51.00    -0.12275    
  14.00  52.00    -0.22794    
  14.00  53.00    -0.32577    
  14.00  54.00    -0.40672    
  14.00  55.00    -0.46514    
  14.00  56.00    -0.50004    
  14.00  57.00    -0.51451    
  14.00  58.00    -0.51465    
  14.00  59.00    -0.50711    
  14.00  60.00    -0.49763    
  14.00  61.00    -0.48933    
  14.00  62.00    -0.48231    
  14.00  63.00    -0.47398    
  14.00  64.00    -0.46015    
  14.00  65.00    -0.43679    
  14.00  66.00    -0.40120    
  14.00  67.00    -0.35405    
  14.00  68.00    -0.29943    
  14.00  69.00    -0.24527    
  14.00  70.00    -0.20232    
  14.00  71.00    -0.18316    
  14.00  72.00    -0.19765    
  14.00  73.00    -0.25522    
  14.00  74.00    -0.35774    
  14.00  75.00    -0.50159    
  14.00  76.00    -0.67673    
  14.00  77.00    -0.86604    
  14.00  78.00     -1.0511    
  14.00  79.00     -1.2116    
  14.00  80.00     -1.3315    
  14.00  81.00     -1.4000    
  14.00  82.00     -1.4122    
  14.00  83.00     -1.3723    
  14.00  84.00     -1.2886    
  14.00  85.00     -1.1732    
  14.00  86.00     -1.0411    
  14.00  87.00    -0.90429    
  14.00  88.00    -0.77162    
  14.00  89.00    -0.64988    
  15.00 -89.00    -0.34325    
  15.00 -88.00    -0.57469    
  15.00 -87.00    -0.72423    
  15.00 -86.00    -0.76784    
  15.00 -85.00    -0.70811    
  15.00 -84.00    -0.56491    
  15.00 -83.00    -0.37784    
  15.00 -82.00    -0.19014    
  15.00 -81.00    -0.46427E-01
  15.00 -80.00     0.25016E-01
  15.00 -79.00     0.11801E-01
  15.00 -78.00    -0.77387E-01
  15.00 -77.00    -0.21911    
  15.00 -76.00    -0.37985    
  15.00 -75.00    -0.52655    
  15.00 -74.00    -0.63586    
  15.00 -73.00    -0.69738    
  15.00 -72.00    -0.71535    
  15.00 -71.00    -0.70627    
  15.00 -70.00    -0.69103    
  15.00 -69.00    -0.68772    
  15.00 -68.00    -0.70447    
  15.00 -67.00    -0.73591    
  15.00 -66.00    -0.76455    
  15.00 -65.00    -0.76599    
  15.00 -64.00    -0.71689    
  15.00 -63.00    -0.60385    
  15.00 -62.00    -0.43094    
  15.00 -61.00    -0.22103    
  15.00 -60.00    -0.13440E-01
  15.00 -59.00     0.14492    
  15.00 -58.00     0.21070    
  15.00 -57.00     0.15617    
  15.00 -56.00    -0.21898E-01
  15.00 -55.00    -0.29858    
  15.00 -54.00    -0.62443    
  15.00 -53.00    -0.93485    
  15.00 -52.00     -1.1647    
  15.00 -51.00     -1.2625    
  15.00 -50.00     -1.2034    
  15.00 -49.00    -0.99514    
  15.00 -48.00    -0.67688    
  15.00 -47.00    -0.31093    
  15.00 -46.00     0.31258E-01
  15.00 -45.00     0.28465    
  15.00 -44.00     0.40520    
  15.00 -43.00     0.37865    
  15.00 -42.00     0.22270    
  15.00 -41.00    -0.18268E-01
  15.00 -40.00    -0.28404    
  15.00 -39.00    -0.51272    
  15.00 -38.00    -0.65414    
  15.00 -37.00    -0.68012    
  15.00 -36.00    -0.58909    
  15.00 -35.00    -0.40469    
  15.00 -34.00    -0.16904    
  15.00 -33.00     0.67331E-01
  15.00 -32.00     0.25639    
  15.00 -31.00     0.36194    
  15.00 -30.00     0.36565    
  15.00 -29.00     0.26891    
  15.00 -28.00     0.90761E-01
  15.00 -27.00    -0.13728    
  15.00 -26.00    -0.37786    
  15.00 -25.00    -0.59472    
  15.00 -24.00    -0.75835    
  15.00 -23.00    -0.84995    
  15.00 -22.00    -0.86309    
  15.00 -21.00    -0.80342    
  15.00 -20.00    -0.68662    
  15.00 -19.00    -0.53514    
  15.00 -18.00    -0.37433    
  15.00 -17.00    -0.22842    
  15.00 -16.00    -0.11681    
  15.00 -15.00    -0.51375E-01
  15.00 -14.00    -0.34935E-01
  15.00 -13.00    -0.61403E-01
  15.00 -12.00    -0.11751    
  15.00 -11.00    -0.18595    
  15.00 -10.00    -0.24929    
  15.00  -9.00    -0.29391    
  15.00  -8.00    -0.31301    
  15.00  -7.00    -0.30801    
  15.00  -6.00    -0.28780    
  15.00  -5.00    -0.26607    
  15.00  -4.00    -0.25722    
  15.00  -3.00    -0.27188    
  15.00  -2.00    -0.31326    
  15.00  -1.00    -0.37534    
  15.00   0.00    -0.44346    
  15.00   1.00    -0.49749    
  15.00   2.00    -0.51669    
  15.00   3.00    -0.48529    
  15.00   4.00    -0.39730    
  15.00   5.00    -0.25920    
  15.00   6.00    -0.89745E-01
  15.00   7.00     0.83339E-01
  15.00   8.00     0.22913    
  15.00   9.00     0.32052    
  15.00  10.00     0.34076    
  15.00  11.00     0.28804    
  15.00  12.00     0.17673    
  15.00  13.00     0.35015E-01
  15.00  14.00    -0.10100    
  15.00  15.00    -0.19523    
  15.00  16.00    -0.22005    
  15.00  17.00    -0.16320    
  15.00  18.00    -0.31523E-01
  15.00  19.00     0.14952    
  15.00  20.00     0.34056    
  15.00  21.00     0.49646    
  15.00  22.00     0.57611    
  15.00  23.00     0.55181    
  15.00  24.00     0.41604    
  15.00  25.00     0.18415    
  15.00  26.00    -0.10784    
  15.00  27.00    -0.40987    
  15.00  28.00    -0.66761    
  15.00  29.00    -0.83314    
  15.00  30.00    -0.87448    
  15.00  31.00    -0.78167    
  15.00  32.00    -0.56835    
  15.00  33.00    -0.26850    
  15.00  34.00     0.70705E-01
  15.00  35.00     0.39842    
  15.00  36.00     0.66975    
  15.00  37.00     0.85346    
  15.00  38.00     0.93637    
  15.00  39.00     0.92361    
  15.00  40.00     0.83524    
  15.00  41.00     0.70011    
  15.00  42.00     0.54880    
  15.00  43.00     0.40727    
  15.00  44.00     0.29233    
  15.00  45.00     0.20993    
  15.00  46.00     0.15635    
  15.00  47.00     0.12090    
  15.00  48.00     0.90345E-01
  15.00  49.00     0.52956E-01
  15.00  50.00     0.11179E-02
  15.00  51.00    -0.66915E-01
  15.00  52.00    -0.14746    
  15.00  53.00    -0.23297    
  15.00  54.00    -0.31427    
  15.00  55.00    -0.38302    
  15.00  56.00    -0.43349    
  15.00  57.00    -0.46339    
  15.00  58.00    -0.47416    
  15.00  59.00    -0.46973    
  15.00  60.00    -0.45545    
  15.00  61.00    -0.43666    
  15.00  62.00    -0.41729    
  15.00  63.00    -0.39909    
  15.00  64.00    -0.38179    
  15.00  65.00    -0.36355    
  15.00  66.00    -0.34183    
  15.00  67.00    -0.31526    
  15.00  68.00    -0.28433    
  15.00  69.00    -0.25265    
  15.00  70.00    -0.22693    
  15.00  71.00    -0.21675    
  15.00  72.00    -0.23107    
  15.00  73.00    -0.27970    
  15.00  74.00    -0.36686    
  15.00  75.00    -0.49227    
  15.00  76.00    -0.64922    
  15.00  77.00    -0.82368    
  15.00  78.00    -0.99930    
  15.00  79.00     -1.1564    
  15.00  80.00     -1.2786    
  15.00  81.00     -1.3536    
  15.00  82.00     -1.3745    
  15.00  83.00     -1.3442    
  15.00  84.00     -1.2691    
  15.00  85.00     -1.1603    
  15.00  86.00     -1.0329    
  15.00  87.00    -0.89929    
  15.00  88.00    -0.76867    
  15.00  89.00    -0.64847    
  16.00 -89.00    -0.34131    
  16.00 -88.00    -0.57110    
  16.00 -87.00    -0.71935    
  16.00 -86.00    -0.76195    
  16.00 -85.00    -0.70103    
  16.00 -84.00    -0.55658    
  16.00 -83.00    -0.36819    
  16.00 -82.00    -0.17924    
  16.00 -81.00    -0.35278E-01
  16.00 -80.00     0.34770E-01
  16.00 -79.00     0.18305E-01
  16.00 -78.00    -0.76444E-01
  16.00 -77.00    -0.22550    
  16.00 -76.00    -0.39454    
  16.00 -75.00    -0.54914    
  16.00 -74.00    -0.66468    
  16.00 -73.00    -0.72978    
  16.00 -72.00    -0.74811    
  16.00 -71.00    -0.73600    
  16.00 -70.00    -0.71512    
  16.00 -69.00    -0.70429    
  16.00 -68.00    -0.71270    
  16.00 -67.00    -0.73569    
  16.00 -66.00    -0.75605    
  16.00 -65.00    -0.74917    
  16.00 -64.00    -0.69100    
  16.00 -63.00    -0.56752    
  16.00 -62.00    -0.38203    
  16.00 -61.00    -0.15735    
  16.00 -60.00     0.66919E-01
  16.00 -59.00     0.24269    
  16.00 -58.00     0.32504    
  16.00 -57.00     0.28436    
  16.00 -56.00     0.11548    
  16.00 -55.00    -0.15829    
  16.00 -54.00    -0.48858    
  16.00 -53.00    -0.81119    
  16.00 -52.00     -1.0604    
  16.00 -51.00     -1.1835    
  16.00 -50.00     -1.1533    
  16.00 -49.00    -0.97490    
  16.00 -48.00    -0.68408    
  16.00 -47.00    -0.33994    
  16.00 -46.00    -0.11026E-01
  16.00 -45.00     0.23949    
  16.00 -44.00     0.36815    
  16.00 -43.00     0.35939    
  16.00 -42.00     0.22792    
  16.00 -41.00     0.13673E-01
  16.00 -40.00    -0.22845    
  16.00 -39.00    -0.44164    
  16.00 -38.00    -0.57966    
  16.00 -37.00    -0.61616    
  16.00 -36.00    -0.54872    
  16.00 -35.00    -0.39745    
  16.00 -34.00    -0.19884    
  16.00 -33.00     0.32085E-02
  16.00 -32.00     0.16692    
  16.00 -31.00     0.26062    
  16.00 -30.00     0.26773    
  16.00 -29.00     0.18821    
  16.00 -28.00     0.36735E-01
  16.00 -27.00    -0.16148    
  16.00 -26.00    -0.37600    
  16.00 -25.00    -0.57646    
  16.00 -24.00    -0.73709    
  16.00 -23.00    -0.83977    
  16.00 -22.00    -0.87571    
  16.00 -21.00    -0.84570    
  16.00 -20.00    -0.75917    
  16.00 -19.00    -0.63227    
  16.00 -18.00    -0.48528    
  16.00 -17.00    -0.33943    
  16.00 -16.00    -0.21373    
  16.00 -15.00    -0.12204    
  16.00 -14.00    -0.71047E-01
  16.00 -13.00    -0.59554E-01
  16.00 -12.00    -0.79329E-01
  16.00 -11.00    -0.11743    
  16.00 -10.00    -0.15957    
  16.00  -9.00    -0.19372    
  16.00  -8.00    -0.21310    
  16.00  -7.00    -0.21765    
  16.00  -6.00    -0.21366    
  16.00  -5.00    -0.21148    
  16.00  -4.00    -0.22194    
  16.00  -3.00    -0.25243    
  16.00  -2.00    -0.30382    
  16.00  -1.00    -0.36907    
  16.00   0.00    -0.43413    
  16.00   1.00    -0.48107    
  16.00   2.00    -0.49259    
  16.00   3.00    -0.45689    
  16.00   4.00    -0.37152    
  16.00   5.00    -0.24517    
  16.00   6.00    -0.96713E-01
  16.00   7.00     0.48405E-01
  16.00   8.00     0.16368    
  16.00   9.00     0.22772    
  16.00  10.00     0.22961    
  16.00  11.00     0.17214    
  16.00  12.00     0.71998E-01
  16.00  13.00    -0.43217E-01
  16.00  14.00    -0.14068    
  16.00  15.00    -0.18953    
  16.00  16.00    -0.16800    
  16.00  17.00    -0.68933E-01
  16.00  18.00     0.97606E-01
  16.00  19.00     0.30532    
  16.00  20.00     0.51620    
  16.00  21.00     0.68781    
  16.00  22.00     0.78180    
  16.00  23.00     0.77206    
  16.00  24.00     0.65067    
  16.00  25.00     0.43040    
  16.00  26.00     0.14324    
  16.00  27.00    -0.16505    
  16.00  28.00    -0.44316    
  16.00  29.00    -0.64368    
  16.00  30.00    -0.73189    
  16.00  31.00    -0.69216    
  16.00  32.00    -0.53058    
  16.00  33.00    -0.27345    
  16.00  34.00     0.38014E-01
  16.00  35.00     0.35565    
  16.00  36.00     0.63325    
  16.00  37.00     0.83455    
  16.00  38.00     0.93891    
  16.00  39.00     0.94344    
  16.00  40.00     0.86169    
  16.00  41.00     0.71922    
  16.00  42.00     0.54733    
  16.00  43.00     0.37645    
  16.00  44.00     0.23046    
  16.00  45.00     0.12317    
  16.00  46.00     0.57314E-01
  16.00  47.00     0.25876E-01
  16.00  48.00     0.15460E-01
  16.00  49.00     0.10584E-01
  16.00  50.00    -0.27402E-02
  16.00  51.00    -0.33562E-01
  16.00  52.00    -0.84656E-01
  16.00  53.00    -0.15256    
  16.00  54.00    -0.22914    
  16.00  55.00    -0.30398    
  16.00  56.00    -0.36693    
  16.00  57.00    -0.41048    
  16.00  58.00    -0.43128    
  16.00  59.00    -0.43036    
  16.00  60.00    -0.41240    
  16.00  61.00    -0.38470    
  16.00  62.00    -0.35475    
  16.00  63.00    -0.32846    
  16.00  64.00    -0.30935    
  16.00  65.00    -0.29762    
  16.00  66.00    -0.29083    
  16.00  67.00    -0.28549    
  16.00  68.00    -0.27845    
  16.00  69.00    -0.26899    
  16.00  70.00    -0.25981    
  16.00  71.00    -0.25749    
  16.00  72.00    -0.27037    
  16.00  73.00    -0.30860    
  16.00  74.00    -0.37893    
  16.00  75.00    -0.48456    
  16.00  76.00    -0.62216    
  16.00  77.00    -0.78088    
  16.00  78.00    -0.94644    
  16.00  79.00     -1.0998    
  16.00  80.00     -1.2240    
  16.00  81.00     -1.3055    
  16.00  82.00     -1.3355    
  16.00  83.00     -1.3147    
  16.00  84.00     -1.2485    
  16.00  85.00     -1.1467    
  16.00  86.00     -1.0242    
  16.00  87.00    -0.89394    
  16.00  88.00    -0.76554    
  16.00  89.00    -0.64701    
  17.00 -89.00    -0.33928    
  17.00 -88.00    -0.56733    
  17.00 -87.00    -0.71424    
  17.00 -86.00    -0.75584    
  17.00 -85.00    -0.69372    
  17.00 -84.00    -0.54800    
  17.00 -83.00    -0.35819    
  17.00 -82.00    -0.16791    
  17.00 -81.00    -0.23455E-01
  17.00 -80.00     0.45532E-01
  17.00 -79.00     0.26276E-01
  17.00 -78.00    -0.73520E-01
  17.00 -77.00    -0.22928    
  17.00 -76.00    -0.40596    
  17.00 -75.00    -0.56776    
  17.00 -74.00    -0.68868    
  17.00 -73.00    -0.75634    
  17.00 -72.00    -0.77375    
  17.00 -71.00    -0.75708    
  17.00 -70.00    -0.72877    
  17.00 -69.00    -0.70859    
  17.00 -68.00    -0.70704    
  17.00 -67.00    -0.72053    
  17.00 -66.00    -0.73256    
  17.00 -65.00    -0.71855    
  17.00 -64.00    -0.65404    
  17.00 -63.00    -0.52443    
  17.00 -62.00    -0.33197    
  17.00 -61.00    -0.98972E-01
  17.00 -60.00     0.13537    
  17.00 -59.00     0.32257    
  17.00 -58.00     0.41683    
  17.00 -57.00     0.38725    
  17.00 -56.00     0.22693    
  17.00 -55.00    -0.42509E-01
  17.00 -54.00    -0.37421    
  17.00 -53.00    -0.70502    
  17.00 -52.00    -0.96945    
  17.00 -51.00     -1.1141    
  17.00 -50.00     -1.1103    
  17.00 -49.00    -0.96033    
  17.00 -48.00    -0.69680    
  17.00 -47.00    -0.37512    
  17.00 -46.00    -0.60501E-01
  17.00 -45.00     0.18640    
  17.00 -44.00     0.32308    
  17.00 -43.00     0.33296    
  17.00 -42.00     0.22774    
  17.00 -41.00     0.42605E-01
  17.00 -40.00    -0.17332    
  17.00 -39.00    -0.36894    
  17.00 -38.00    -0.50255    
  17.00 -37.00    -0.55010    
  17.00 -36.00    -0.50865    
  17.00 -35.00    -0.39481    
  17.00 -34.00    -0.23914    
  17.00 -33.00    -0.78293E-01
  17.00 -32.00     0.53137E-01
  17.00 -31.00     0.12910    
  17.00 -30.00     0.13595    
  17.00 -29.00     0.73246E-01
  17.00 -28.00    -0.47984E-01
  17.00 -27.00    -0.20866    
  17.00 -26.00    -0.38572    
  17.00 -25.00    -0.55592    
  17.00 -24.00    -0.69895    
  17.00 -23.00    -0.79950    
  17.00 -22.00    -0.84846    
  17.00 -21.00    -0.84338    
  17.00 -20.00    -0.78830    
  17.00 -19.00    -0.69290    
  17.00 -18.00    -0.57115    
  17.00 -17.00    -0.43926    
  17.00 -16.00    -0.31328    
  17.00 -15.00    -0.20660    
  17.00 -14.00    -0.12788    
  17.00 -13.00    -0.79850E-01
  17.00 -12.00    -0.59506E-01
  17.00 -11.00    -0.59503E-01
  17.00 -10.00    -0.70632E-01
  17.00  -9.00    -0.84625E-01
  17.00  -8.00    -0.96538E-01
  17.00  -7.00    -0.10598    
  17.00  -6.00    -0.11681    
  17.00  -5.00    -0.13533    
  17.00  -4.00    -0.16749    
  17.00  -3.00    -0.21600    
  17.00  -2.00    -0.27825    
  17.00  -1.00    -0.34572    
  17.00   0.00    -0.40535    
  17.00   1.00    -0.44241    
  17.00   2.00    -0.44439    
  17.00   3.00    -0.40467    
  17.00   4.00    -0.32500    
  17.00   5.00    -0.21607    
  17.00   6.00    -0.95794E-01
  17.00   7.00     0.14323E-01
  17.00   8.00     0.93956E-01
  17.00   9.00     0.12876    
  17.00  10.00     0.11402    
  17.00  11.00     0.56345E-01
  17.00  12.00    -0.27208E-01
  17.00  13.00    -0.11224    
  17.00  14.00    -0.17194    
  17.00  15.00    -0.18269    
  17.00  16.00    -0.12932    
  17.00  17.00    -0.88773E-02
  17.00  18.00     0.16790    
  17.00  19.00     0.37766    
  17.00  20.00     0.58800    
  17.00  21.00     0.76302    
  17.00  22.00     0.86973    
  17.00  23.00     0.88433    
  17.00  24.00     0.79719    
  17.00  25.00     0.61541    
  17.00  26.00     0.36259    
  17.00  27.00     0.75506E-01
  17.00  28.00    -0.20169    
  17.00  29.00    -0.42489    
  17.00  30.00    -0.55774    
  17.00  31.00    -0.57808    
  17.00  32.00    -0.48209    
  17.00  33.00    -0.28502    
  17.00  34.00    -0.18510E-01
  17.00  35.00     0.27510    
  17.00  36.00     0.55039    
  17.00  37.00     0.76693    
  17.00  38.00     0.89609    
  17.00  39.00     0.92549    
  17.00  40.00     0.86008    
  17.00  41.00     0.71993    
  17.00  42.00     0.53524    
  17.00  43.00     0.33979    
  17.00  44.00     0.16421    
  17.00  45.00     0.30531E-01
  17.00  46.00    -0.51076E-01
  17.00  47.00    -0.82767E-01
  17.00  48.00    -0.76899E-01
  17.00  49.00    -0.51827E-01
  17.00  50.00    -0.27372E-01
  17.00  51.00    -0.19814E-01
  17.00  52.00    -0.38675E-01
  17.00  53.00    -0.85122E-01
  17.00  54.00    -0.15274    
  17.00  55.00    -0.22964    
  17.00  56.00    -0.30177    
  17.00  57.00    -0.35667    
  17.00  58.00    -0.38633    
  17.00  59.00    -0.38883    
  17.00  60.00    -0.36801    
  17.00  61.00    -0.33285    
  17.00  62.00    -0.29415    
  17.00  63.00    -0.26171    
  17.00  64.00    -0.24263    
  17.00  65.00    -0.23896    
  17.00  66.00    -0.24827    
  17.00  67.00    -0.26479    
  17.00  68.00    -0.28177    
  17.00  69.00    -0.29416    
  17.00  70.00    -0.30073    
  17.00  71.00    -0.30513    
  17.00  72.00    -0.31525    
  17.00  73.00    -0.34167    
  17.00  74.00    -0.39379    
  17.00  75.00    -0.47840    
  17.00  76.00    -0.59559    
  17.00  77.00    -0.73776    
  17.00  78.00    -0.89267    
  17.00  79.00     -1.0419    
  17.00  80.00     -1.1680    
  17.00  81.00     -1.2560    
  17.00  82.00     -1.2950    
  17.00  83.00     -1.2841    
  17.00  84.00     -1.2268    
  17.00  85.00     -1.1322    
  17.00  86.00     -1.0149    
  17.00  87.00    -0.88824    
  17.00  88.00    -0.76224    
  17.00  89.00    -0.64549    
  18.00 -89.00    -0.33716    
  18.00 -88.00    -0.56341    
  18.00 -87.00    -0.70891    
  18.00 -86.00    -0.74948    
  18.00 -85.00    -0.68616    
  18.00 -84.00    -0.53919    
  18.00 -83.00    -0.34783    
  18.00 -82.00    -0.15617    
  18.00 -81.00    -0.10977E-01
  18.00 -80.00     0.57295E-01
  18.00 -79.00     0.35706E-01
  18.00 -78.00    -0.68603E-01
  18.00 -77.00    -0.23042    
  18.00 -76.00    -0.41404    
  18.00 -75.00    -0.58232    
  18.00 -74.00    -0.70779    
  18.00 -73.00    -0.77699    
  18.00 -72.00    -0.79224    
  18.00 -71.00    -0.76956    
  18.00 -70.00    -0.73220    
  18.00 -69.00    -0.70104    
  18.00 -68.00    -0.68814    
  18.00 -67.00    -0.69135    
  18.00 -66.00    -0.69527    
  18.00 -65.00    -0.67570    
  18.00 -64.00    -0.60801    
  18.00 -63.00    -0.47704    
  18.00 -62.00    -0.28381    
  18.00 -61.00    -0.49606E-01
  18.00 -60.00     0.18741    
  18.00 -59.00     0.37916    
  18.00 -58.00     0.47974    
  18.00 -57.00     0.45756    
  18.00 -56.00     0.30438    
  18.00 -55.00     0.40137E-01
  18.00 -54.00    -0.29011    
  18.00 -53.00    -0.62482    
  18.00 -52.00    -0.89943    
  18.00 -51.00     -1.0607    
  18.00 -50.00     -1.0790    
  18.00 -49.00    -0.95442    
  18.00 -48.00    -0.71648    
  18.00 -47.00    -0.41692    
  18.00 -46.00    -0.11733    
  18.00 -45.00     0.12451    
  18.00 -44.00     0.26750    
  18.00 -43.00     0.29447    
  18.00 -42.00     0.21443    
  18.00 -41.00     0.58032E-01
  18.00 -40.00    -0.13131    
  18.00 -39.00    -0.30828    
  18.00 -38.00    -0.43596    
  18.00 -37.00    -0.49299    
  18.00 -36.00    -0.47629    
  18.00 -35.00    -0.39942    
  18.00 -34.00    -0.28735    
  18.00 -33.00    -0.16960    
  18.00 -32.00    -0.73431E-01
  18.00 -31.00    -0.18762E-01
  18.00 -30.00    -0.15510E-01
  18.00 -29.00    -0.63517E-01
  18.00 -28.00    -0.15440    
  18.00 -27.00    -0.27449    
  18.00 -26.00    -0.40778    
  18.00 -25.00    -0.53853    
  18.00 -24.00    -0.65287    
  18.00 -23.00    -0.73981    
  18.00 -22.00    -0.79175    
  18.00 -21.00    -0.80473    
  18.00 -20.00    -0.77860    
  18.00 -19.00    -0.71704    
  18.00 -18.00    -0.62726    
  18.00 -17.00    -0.51915    
  18.00 -16.00    -0.40393    
  18.00 -15.00    -0.29248    
  18.00 -14.00    -0.19366    
  18.00 -13.00    -0.11308    
  18.00 -12.00    -0.52735E-01
  18.00 -11.00    -0.11570E-01
  18.00 -10.00     0.13217E-01
  18.00  -9.00     0.24545E-01
  18.00  -8.00     0.24088E-01
  18.00  -7.00     0.11683E-01
  18.00  -6.00    -0.14263E-01
  18.00  -5.00    -0.55457E-01
  18.00  -4.00    -0.11198    
  18.00  -3.00    -0.18072    
  18.00  -2.00    -0.25473    
  18.00  -1.00    -0.32372    
  18.00   0.00    -0.37590    
  18.00   1.00    -0.40064    
  18.00   2.00    -0.39128    
  18.00   3.00    -0.34729    
  18.00   4.00    -0.27500    
  18.00   5.00    -0.18677    
  18.00   6.00    -0.98581E-01
  18.00   7.00    -0.26595E-01
  18.00   8.00     0.16408E-01
  18.00   9.00     0.23966E-01
  18.00  10.00    -0.24898E-02
  18.00  11.00    -0.53721E-01
  18.00  12.00    -0.11438    
  18.00  13.00    -0.16593    
  18.00  14.00    -0.19011    
  18.00  15.00    -0.17235    
  18.00  16.00    -0.10455    
  18.00  17.00     0.13225E-01
  18.00  18.00     0.17226    
  18.00  19.00     0.35598    
  18.00  20.00     0.54186    
  18.00  21.00     0.70433    
  18.00  22.00     0.81840    
  18.00  23.00     0.86349    
  18.00  24.00     0.82720    
  18.00  25.00     0.70817    
  18.00  26.00     0.51764    
  18.00  27.00     0.27904    
  18.00  28.00     0.25360E-01
  18.00  29.00    -0.20546    
  18.00  30.00    -0.37666    
  18.00  31.00    -0.45922    
  18.00  32.00    -0.43751    
  18.00  33.00    -0.31288    
  18.00  34.00    -0.10425    
  18.00  35.00     0.15478    
  18.00  36.00     0.42169    
  18.00  37.00     0.65278    
  18.00  38.00     0.81131    
  18.00  39.00     0.87419    
  18.00  40.00     0.83597    
  18.00  41.00     0.70921    
  18.00  42.00     0.52119    
  18.00  43.00     0.30774    
  18.00  44.00     0.10564    
  18.00  45.00    -0.54764E-01
  18.00  46.00    -0.15516    
  18.00  47.00    -0.19178    
  18.00  48.00    -0.17474    
  18.00  49.00    -0.12423    
  18.00  50.00    -0.65093E-01
  18.00  51.00    -0.20442E-01
  18.00  52.00    -0.65308E-02
  18.00  53.00    -0.29486E-01
  18.00  54.00    -0.85118E-01
  18.00  55.00    -0.16068    
  18.00  56.00    -0.23879    
  18.00  57.00    -0.30255    
  18.00  58.00    -0.33955    
  18.00  59.00    -0.34502    
  18.00  60.00    -0.32187    
  18.00  61.00    -0.28057    
  18.00  62.00    -0.23496    
  18.00  63.00    -0.19844    
  18.00  64.00    -0.18135    
  18.00  65.00    -0.18739    
  18.00  66.00    -0.21397    
  18.00  67.00    -0.25295    
  18.00  68.00    -0.29402    
  18.00  69.00    -0.32779    
  18.00  70.00    -0.34924    
  18.00  71.00    -0.35923    
  18.00  72.00    -0.36526    
  18.00  73.00    -0.37852    
  18.00  74.00    -0.41118    
  18.00  75.00    -0.47365    
  18.00  76.00    -0.56952    
  18.00  77.00    -0.69445    
  18.00  78.00    -0.83816    
  18.00  79.00    -0.98294    
  18.00  80.00     -1.1108    
  18.00  81.00     -1.2052    
  18.00  82.00     -1.2534    
  18.00  83.00     -1.2523    
  18.00  84.00     -1.2042    
  18.00  85.00     -1.1171    
  18.00  86.00     -1.0052    
  18.00  87.00    -0.88222    
  18.00  88.00    -0.75876    
  18.00  89.00    -0.64391    
  19.00 -89.00    -0.33495    
  19.00 -88.00    -0.55932    
  19.00 -87.00    -0.70336    
  19.00 -86.00    -0.74290    
  19.00 -85.00    -0.67836    
  19.00 -84.00    -0.53013    
  19.00 -83.00    -0.33712    
  19.00 -82.00    -0.14404    
  19.00 -81.00     0.21273E-02
  19.00 -80.00     0.70039E-01
  19.00 -79.00     0.46567E-01
  19.00 -78.00    -0.61710E-01
  19.00 -77.00    -0.22891    
  19.00 -76.00    -0.41879    
  19.00 -75.00    -0.59281    
  19.00 -74.00    -0.72200    
  19.00 -73.00    -0.79179    
  19.00 -72.00    -0.80375    
  19.00 -71.00    -0.77377    
  19.00 -70.00    -0.72594    
  19.00 -69.00    -0.68244    
  19.00 -68.00    -0.65712    
  19.00 -67.00    -0.64962    
  19.00 -66.00    -0.64598    
  19.00 -65.00    -0.62273    
  19.00 -64.00    -0.55534    
  19.00 -63.00    -0.42808    
  19.00 -62.00    -0.24057    
  19.00 -61.00    -0.12649E-01
  19.00 -60.00     0.21923    
  19.00 -59.00     0.40819    
  19.00 -58.00     0.50898    
  19.00 -57.00     0.48996    
  19.00 -56.00     0.34199    
  19.00 -55.00     0.83465E-01
  19.00 -54.00    -0.24255    
  19.00 -53.00    -0.57661    
  19.00 -52.00    -0.85577    
  19.00 -51.00     -1.0278    
  19.00 -50.00     -1.0628    
  19.00 -49.00    -0.95924    
  19.00 -48.00    -0.74414    
  19.00 -47.00    -0.46574    
  19.00 -46.00    -0.18200    
  19.00 -45.00     0.52519E-01
  19.00 -44.00     0.19851    
  19.00 -43.00     0.23884    
  19.00 -42.00     0.18046    
  19.00 -41.00     0.50159E-01
  19.00 -40.00    -0.11382    
  19.00 -39.00    -0.27161    
  19.00 -38.00    -0.39099    
  19.00 -37.00    -0.45351    
  19.00 -36.00    -0.45655    
  19.00 -35.00    -0.41138    
  19.00 -34.00    -0.33830    
  19.00 -33.00    -0.26051    
  19.00 -32.00    -0.19849    
  19.00 -31.00    -0.16611    
  19.00 -30.00    -0.16916    
  19.00 -29.00    -0.20598    
  19.00 -28.00    -0.26967    
  19.00 -27.00    -0.35070    
  19.00 -26.00    -0.43920    
  19.00 -25.00    -0.52641    
  19.00 -24.00    -0.60514    
  19.00 -23.00    -0.66967    
  19.00 -22.00    -0.71530    
  19.00 -21.00    -0.73819    
  19.00 -20.00    -0.73551    
  19.00 -19.00    -0.70595    
  19.00 -18.00    -0.65023    
  19.00 -17.00    -0.57144    
  19.00 -16.00    -0.47486    
  19.00 -15.00    -0.36738    
  19.00 -14.00    -0.25658    
  19.00 -13.00    -0.14984    
  19.00 -12.00    -0.53640E-01
  19.00 -11.00     0.26659E-01
  19.00 -10.00     0.86799E-01
  19.00  -9.00     0.12342    
  19.00  -8.00     0.13404    
  19.00  -7.00     0.11739    
  19.00  -6.00     0.74058E-01
  19.00  -5.00     0.73190E-02
  19.00  -4.00    -0.76312E-01
  19.00  -3.00    -0.16716    
  19.00  -2.00    -0.25337    
  19.00  -1.00    -0.32275    
  19.00   0.00    -0.36514    
  19.00   1.00    -0.37470    
  19.00   2.00    -0.35145    
  19.00   3.00    -0.30154    
  19.00   4.00    -0.23612    
  19.00   5.00    -0.16887    
  19.00   6.00    -0.11301    
  19.00   7.00    -0.78277E-01
  19.00   8.00    -0.68987E-01
  19.00   9.00    -0.83304E-01
  19.00  10.00    -0.11406    
  19.00  11.00    -0.15066    
  19.00  12.00    -0.18153    
  19.00  13.00    -0.19636    
  19.00  14.00    -0.18766    
  19.00  15.00    -0.15136    
  19.00  16.00    -0.86669E-01
  19.00  17.00     0.44835E-02
  19.00  18.00     0.11791    
  19.00  19.00     0.24724    
  19.00  20.00     0.38363    
  19.00  21.00     0.51530    
  19.00  22.00     0.62770    
  19.00  23.00     0.70447    
  19.00  24.00     0.72980    
  19.00  25.00     0.69179    
  19.00  26.00     0.58618    
  19.00  27.00     0.41946    
  19.00  28.00     0.21012    
  19.00  29.00    -0.12644E-01
  19.00  30.00    -0.21309    
  19.00  31.00    -0.35535    
  19.00  32.00    -0.41087    
  19.00  33.00    -0.36512    
  19.00  34.00    -0.22182    
  19.00  35.00    -0.35715E-02
  19.00  36.00     0.25184    
  19.00  37.00     0.49849    
  19.00  38.00     0.69161    
  19.00  39.00     0.79666    
  19.00  40.00     0.79647    
  19.00  41.00     0.69442    
  19.00  42.00     0.51325    
  19.00  43.00     0.28951    
  19.00  44.00     0.65310E-01
  19.00  45.00    -0.12087    
  19.00  46.00    -0.24225    
  19.00  47.00    -0.28830    
  19.00  48.00    -0.26584    
  19.00  49.00    -0.19579    
  19.00  50.00    -0.10704    
  19.00  51.00    -0.28837E-01
  19.00  52.00     0.16150E-01
  19.00  53.00     0.16770E-01
  19.00  54.00    -0.25324E-01
  19.00  55.00    -0.97083E-01
  19.00  56.00    -0.17846    
  19.00  57.00    -0.24864    
  19.00  58.00    -0.29127    
  19.00  59.00    -0.29896    
  19.00  60.00    -0.27379    
  19.00  61.00    -0.22753    
  19.00  62.00    -0.17677    
  19.00  63.00    -0.13823    
  19.00  64.00    -0.12514    
  19.00  65.00    -0.14257    
  19.00  66.00    -0.18758    
  19.00  67.00    -0.24959    
  19.00  68.00    -0.31469    
  19.00  69.00    -0.36930    
  19.00  70.00    -0.40471    
  19.00  71.00    -0.41918    
  19.00  72.00    -0.41981    
  19.00  73.00    -0.41870    
  19.00  74.00    -0.43079    
  19.00  75.00    -0.47014    
  19.00  76.00    -0.54392    
  19.00  77.00    -0.65101    
  19.00  78.00    -0.78308    
  19.00  79.00    -0.92312    
  19.00  80.00     -1.0526    
  19.00  81.00     -1.1534    
  19.00  82.00     -1.2107    
  19.00  83.00     -1.2195    
  19.00  84.00     -1.1806    
  19.00  85.00     -1.1012    
  19.00  86.00    -0.99489    
  19.00  87.00    -0.87586    
  19.00  88.00    -0.75512    
  19.00  89.00    -0.64228    
  20.00 -89.00    -0.33266    
  20.00 -88.00    -0.55506    
  20.00 -87.00    -0.69759    
  20.00 -86.00    -0.73607    
  20.00 -85.00    -0.67031    
  20.00 -84.00    -0.52084    
  20.00 -83.00    -0.32608    
  20.00 -82.00    -0.13154    
  20.00 -81.00     0.15821E-01
  20.00 -80.00     0.83726E-01
  20.00 -79.00     0.58809E-01
  20.00 -78.00    -0.52879E-01
  20.00 -77.00    -0.22481    
  20.00 -76.00    -0.42024    
  20.00 -75.00    -0.59930    
  20.00 -74.00    -0.73143    
  20.00 -73.00    -0.80095    
  20.00 -72.00    -0.80861    
  20.00 -71.00    -0.77030    
  20.00 -70.00    -0.71086    
  20.00 -69.00    -0.65400    
  20.00 -68.00    -0.61556    
  20.00 -67.00    -0.59726    
  20.00 -66.00    -0.58693    
  20.00 -65.00    -0.56218    
  20.00 -64.00    -0.49877    
  20.00 -63.00    -0.38040    
  20.00 -62.00    -0.20513    
  20.00 -61.00     0.90709E-02
  20.00 -60.00     0.22804    
  20.00 -59.00     0.40685    
  20.00 -58.00     0.50168    
  20.00 -57.00     0.48146    
  20.00 -56.00     0.33665    
  20.00 -55.00     0.84268E-01
  20.00 -54.00    -0.23474    
  20.00 -53.00    -0.56344    
  20.00 -52.00    -0.84118    
  20.00 -51.00     -1.0175    
  20.00 -50.00     -1.0630    
  20.00 -49.00    -0.97553    
  20.00 -48.00    -0.77999    
  20.00 -47.00    -0.52155    
  20.00 -46.00    -0.25466    
  20.00 -45.00    -0.30471E-01
  20.00 -44.00     0.11396    
  20.00 -43.00     0.16227    
  20.00 -42.00     0.12030    
  20.00 -41.00     0.11886E-01
  20.00 -40.00    -0.12895    
  20.00 -39.00    -0.26711    
  20.00 -38.00    -0.37478    
  20.00 -37.00    -0.43656    
  20.00 -36.00    -0.45095    
  20.00 -35.00    -0.42803    
  20.00 -34.00    -0.38475    
  20.00 -33.00    -0.33937    
  20.00 -32.00    -0.30669    
  20.00 -31.00    -0.29514    
  20.00 -30.00    -0.30633    
  20.00 -29.00    -0.33640    
  20.00 -28.00    -0.37864    
  20.00 -27.00    -0.42611    
  20.00 -26.00    -0.47356    
  20.00 -25.00    -0.51809    
  20.00 -24.00    -0.55876    
  20.00 -23.00    -0.59535    
  20.00 -22.00    -0.62705    
  20.00 -21.00    -0.65160    
  20.00 -20.00    -0.66508    
  20.00 -19.00    -0.66257    
  20.00 -18.00    -0.63921    
  20.00 -17.00    -0.59153    
  20.00 -16.00    -0.51847    
  20.00 -15.00    -0.42205    
  20.00 -14.00    -0.30750    
  20.00 -13.00    -0.18292    
  20.00 -12.00    -0.58516E-01
  20.00 -11.00     0.54315E-01
  20.00 -10.00     0.14425    
  20.00  -9.00     0.20139    
  20.00  -8.00     0.21880    
  20.00  -7.00     0.19389    
  20.00  -6.00     0.12947    
  20.00  -5.00     0.34064E-01
  20.00  -4.00    -0.78817E-01
  20.00  -3.00    -0.19254    
  20.00  -2.00    -0.29015    
  20.00  -1.00    -0.35764    
  20.00   0.00    -0.38685    
  20.00   1.00    -0.37727    
  20.00   2.00    -0.33619    
  20.00   3.00    -0.27688    
  20.00   4.00    -0.21534    
  20.00   5.00    -0.16628    
  20.00   6.00    -0.13951    
  20.00   7.00    -0.13768    
  20.00   8.00    -0.15612    
  20.00   9.00    -0.18463    
  20.00  10.00    -0.21088    
  20.00  11.00    -0.22414    
  20.00  12.00    -0.21832    
  20.00  13.00    -0.19324    
  20.00  14.00    -0.15384    
  20.00  15.00    -0.10760    
  20.00  16.00    -0.61123E-01
  20.00  17.00    -0.17259E-01
  20.00  18.00     0.26283E-01
  20.00  19.00     0.76003E-01
  20.00  20.00     0.13961    
  20.00  21.00     0.22184    
  20.00  22.00     0.32056    
  20.00  23.00     0.42467    
  20.00  24.00     0.51488    
  20.00  25.00     0.56758    
  20.00  26.00     0.56111    
  20.00  27.00     0.48263    
  20.00  28.00     0.33375    
  20.00  29.00     0.13295    
  20.00  30.00    -0.86374E-01
  20.00  31.00    -0.28204    
  20.00  32.00    -0.41228    
  20.00  33.00    -0.44570    
  20.00  34.00    -0.36951    
  20.00  35.00    -0.19371    
  20.00  36.00     0.49940E-01
  20.00  37.00     0.31429    
  20.00  38.00     0.54692    
  20.00  39.00     0.70171    
  20.00  40.00     0.74902    
  20.00  41.00     0.68196    
  20.00  42.00     0.51744    
  20.00  43.00     0.29152    
  20.00  44.00     0.50666E-01
  20.00  45.00    -0.15904    
  20.00  46.00    -0.30236    
  20.00  47.00    -0.36158    
  20.00  48.00    -0.33940    
  20.00  49.00    -0.25641    
  20.00  50.00    -0.14449    
  20.00  51.00    -0.38124E-01
  20.00  52.00     0.34230E-01
  20.00  53.00     0.56608E-01
  20.00  54.00     0.28035E-01
  20.00  55.00    -0.38576E-01
  20.00  56.00    -0.12112    
  20.00  57.00    -0.19552    
  20.00  58.00    -0.24204    
  20.00  59.00    -0.25101    
  20.00  60.00    -0.22389    
  20.00  61.00    -0.17365    
  20.00  62.00    -0.11940    
  20.00  63.00    -0.80819E-01
  20.00  64.00    -0.73679E-01
  20.00  65.00    -0.10413    
  20.00  66.00    -0.16863    
  20.00  67.00    -0.25413    
  20.00  68.00    -0.34312    
  20.00  69.00    -0.41793    
  20.00  70.00    -0.46632    
  20.00  71.00    -0.48418    
  20.00  72.00    -0.47818    
  20.00  73.00    -0.46160    
  20.00  74.00    -0.45219    
  20.00  75.00    -0.46764    
  20.00  76.00    -0.51874    
  20.00  77.00    -0.60753    
  20.00  78.00    -0.72758    
  20.00  79.00    -0.86264    
  20.00  80.00    -0.99353    
  20.00  81.00     -1.1006    
  20.00  82.00     -1.1671    
  20.00  83.00     -1.1858    
  20.00  84.00     -1.1562    
  20.00  85.00     -1.0847    
  20.00  86.00    -0.98413    
  20.00  87.00    -0.86919    
  20.00  88.00    -0.75131    
  20.00  89.00    -0.64059    
  21.00 -89.00    -0.33028    
  21.00 -88.00    -0.55064    
  21.00 -87.00    -0.69158    
  21.00 -86.00    -0.72899    
  21.00 -85.00    -0.66202    
  21.00 -84.00    -0.51132    
  21.00 -83.00    -0.31473    
  21.00 -82.00    -0.11868    
  21.00 -81.00     0.30059E-01
  21.00 -80.00     0.98306E-01
  21.00 -79.00     0.72368E-01
  21.00 -78.00    -0.42174E-01
  21.00 -77.00    -0.21821    
  21.00 -76.00    -0.41851    
  21.00 -75.00    -0.60190    
  21.00 -74.00    -0.73626    
  21.00 -73.00    -0.80478    
  21.00 -72.00    -0.80735    
  21.00 -71.00    -0.75992    
  21.00 -70.00    -0.68807    
  21.00 -69.00    -0.61723    
  21.00 -68.00    -0.56538    
  21.00 -67.00    -0.53661    
  21.00 -66.00    -0.52077    
  21.00 -65.00    -0.49687    
  21.00 -64.00    -0.44116    
  21.00 -63.00    -0.33672    
  21.00 -62.00    -0.17993    
  21.00 -61.00     0.13520E-01
  21.00 -60.00     0.21229    
  21.00 -59.00     0.37408    
  21.00 -58.00     0.45721    
  21.00 -57.00     0.43179    
  21.00 -56.00     0.28832    
  21.00 -55.00     0.42614E-01
  21.00 -54.00    -0.26657    
  21.00 -53.00    -0.58514    
  21.00 -52.00    -0.85539    
  21.00 -51.00     -1.0293    
  21.00 -50.00     -1.0791    
  21.00 -49.00     -1.0025    
  21.00 -48.00    -0.82307    
  21.00 -47.00    -0.58339    
  21.00 -46.00    -0.33456    
  21.00 -45.00    -0.12419    
  21.00 -44.00     0.13407E-01
  21.00 -43.00     0.63484E-01
  21.00 -42.00     0.31764E-01
  21.00 -41.00    -0.59658E-01
  21.00 -40.00    -0.17988    
  21.00 -39.00    -0.29773    
  21.00 -38.00    -0.38931    
  21.00 -37.00    -0.44244    
  21.00 -36.00    -0.45739    
  21.00 -35.00    -0.44431    
  21.00 -34.00    -0.41841    
  21.00 -33.00    -0.39470    
  21.00 -32.00    -0.38377    
  21.00 -31.00    -0.38962    
  21.00 -30.00    -0.40989    
  21.00 -29.00    -0.43801    
  21.00 -28.00    -0.46623    
  21.00 -27.00    -0.48852    
  21.00 -26.00    -0.50243    
  21.00 -25.00    -0.50943    
  21.00 -24.00    -0.51376    
  21.00 -23.00    -0.52046    
  21.00 -22.00    -0.53316    
  21.00 -21.00    -0.55229    
  21.00 -20.00    -0.57436    
  21.00 -19.00    -0.59239    
  21.00 -18.00    -0.59723    
  21.00 -17.00    -0.57966    
  21.00 -16.00    -0.53251    
  21.00 -15.00    -0.45265    
  21.00 -14.00    -0.34225    
  21.00 -13.00    -0.20922    
  21.00 -12.00    -0.66627E-01
  21.00 -11.00     0.68872E-01
  21.00 -10.00     0.17943    
  21.00  -9.00     0.24898    
  21.00  -8.00     0.26633    
  21.00  -7.00     0.22772    
  21.00  -6.00     0.13832    
  21.00  -5.00     0.12004E-01
  21.00  -4.00    -0.13064    
  21.00  -3.00    -0.26602    
  21.00  -2.00    -0.37226    
  21.00  -1.00    -0.43381    
  21.00   0.00    -0.44492    
  21.00   1.00    -0.41090    
  21.00   2.00    -0.34663    
  21.00   3.00    -0.27270    
  21.00   4.00    -0.20991    
  21.00   5.00    -0.17373    
  21.00   6.00    -0.17021    
  21.00   7.00    -0.19457    
  21.00   8.00    -0.23299    
  21.00   9.00    -0.26713    
  21.00  10.00    -0.28009    
  21.00  11.00    -0.26198    
  21.00  12.00    -0.21340    
  21.00  13.00    -0.14549    
  21.00  14.00    -0.76604E-01
  21.00  15.00    -0.26322E-01
  21.00  16.00    -0.86692E-02
  21.00  17.00    -0.26771E-01
  21.00  18.00    -0.70719E-01
  21.00  19.00    -0.11963    
  21.00  20.00    -0.14754    
  21.00  21.00    -0.13161    
  21.00  22.00    -0.60170E-01
  21.00  23.00     0.61865E-01
  21.00  24.00     0.21217    
  21.00  25.00     0.35540    
  21.00  26.00     0.45193    
  21.00  27.00     0.46877    
  21.00  28.00     0.38955    
  21.00  29.00     0.22084    
  21.00  30.00    -0.74254E-02
  21.00  31.00    -0.24767    
  21.00  32.00    -0.44551    
  21.00  33.00    -0.55290    
  21.00  34.00    -0.54031    
  21.00  35.00    -0.40467    
  21.00  36.00    -0.17087    
  21.00  37.00     0.11351    
  21.00  38.00     0.38916    
  21.00  39.00     0.59879    
  21.00  40.00     0.70030    
  21.00  41.00     0.67615    
  21.00  42.00     0.53661    
  21.00  43.00     0.31621    
  21.00  44.00     0.64772E-01
  21.00  45.00    -0.16492    
  21.00  46.00    -0.32959    
  21.00  47.00    -0.40439    
  21.00  48.00    -0.38741    
  21.00  49.00    -0.29806    
  21.00  50.00    -0.17012    
  21.00  51.00    -0.42257E-01
  21.00  52.00     0.52139E-01
  21.00  53.00     0.92795E-01
  21.00  54.00     0.76244E-01
  21.00  55.00     0.14999E-01
  21.00  56.00    -0.67348E-01
  21.00  57.00    -0.14409    
  21.00  58.00    -0.19279    
  21.00  59.00    -0.20197    
  21.00  60.00    -0.17273    
  21.00  61.00    -0.11923    
  21.00  62.00    -0.62924E-01
  21.00  63.00    -0.26118E-01
  21.00  64.00    -0.26719E-01
  21.00  65.00    -0.71665E-01
  21.00  66.00    -0.15655    
  21.00  67.00    -0.26586    
  21.00  68.00    -0.37845    
  21.00  69.00    -0.47274    
  21.00  70.00    -0.53310    
  21.00  71.00    -0.55330    
  21.00  72.00    -0.53955    
  21.00  73.00    -0.50657    
  21.00  74.00    -0.47492    
  21.00  75.00    -0.46588    
  21.00  76.00    -0.49388    
  21.00  77.00    -0.56406    
  21.00  78.00    -0.67183    
  21.00  79.00    -0.80172    
  21.00  80.00    -0.93389    
  21.00  81.00     -1.0472    
