 -66.00  13.00     0.47027    
 -66.00  14.00     0.12492    
 -66.00  15.00    -0.22623    
 -66.00  16.00    -0.51602    
 -66.00  17.00    -0.69042    
 -66.00  18.00    -0.72135    
 -66.00  19.00    -0.61361    
 -66.00  20.00    -0.40448    
 -66.00  21.00    -0.15569    
 -66.00  22.00     0.60517E-01
 -66.00  23.00     0.17808    
 -66.00  24.00     0.15296    
 -66.00  25.00    -0.25694E-01
 -66.00  26.00    -0.33174    
 -66.00  27.00    -0.70685    
 -66.00  28.00     -1.0730    
 -66.00  29.00     -1.3503    
 -66.00  30.00     -1.4755    
 -66.00  31.00     -1.4173    
 -66.00  32.00     -1.1851    
 -66.00  33.00    -0.82658    
 -66.00  34.00    -0.41787    
 -66.00  35.00    -0.45036E-01
 -66.00  36.00     0.21616    
 -66.00  37.00     0.31840    
 -66.00  38.00     0.25374    
 -66.00  39.00     0.54562E-01
 -66.00  40.00    -0.21579    
 -66.00  41.00    -0.48012    
 -66.00  42.00    -0.66749    
 -66.00  43.00    -0.73137    
 -66.00  44.00    -0.66002    
 -66.00  45.00    -0.47761    
 -66.00  46.00    -0.23472    
 -66.00  47.00     0.69952E-02
 -66.00  48.00     0.19352    
 -66.00  49.00     0.29262    
 -66.00  50.00     0.30160    
 -66.00  51.00     0.24497    
 -66.00  52.00     0.16419    
 -66.00  53.00     0.10318    
 -66.00  54.00     0.93855E-01
 -66.00  55.00     0.14571    
 -66.00  56.00     0.24515    
 -66.00  57.00     0.36087    
 -66.00  58.00     0.45587    
 -66.00  59.00     0.50097    
 -66.00  60.00     0.48325    
 -66.00  61.00     0.41145    
 -66.00  62.00     0.31015    
 -66.00  63.00     0.21042    
 -66.00  64.00     0.13779    
 -66.00  65.00     0.10221    
 -66.00  66.00     0.95022E-01
 -66.00  67.00     0.92053E-01
 -66.00  68.00     0.65785E-01
 -66.00  69.00    -0.30622E-02
 -66.00  70.00    -0.11487    
 -66.00  71.00    -0.24473    
 -66.00  72.00    -0.35037    
 -66.00  73.00    -0.38291    
 -66.00  74.00    -0.30393    
 -66.00  75.00    -0.10405    
 -66.00  76.00     0.19077    
 -66.00  77.00     0.51832    
 -66.00  78.00     0.79515    
 -66.00  79.00     0.93663    
 -66.00  80.00     0.88418    
 -66.00  81.00     0.62104    
 -66.00  82.00     0.18540    
 -66.00  83.00    -0.33707    
 -66.00  84.00    -0.83077    
 -66.00  85.00     -1.1792    
 -66.00  86.00     -1.2932    
 -66.00  87.00     -1.1385    
 -66.00  88.00    -0.74134    
 -66.00  89.00    -0.18627    
 -65.00 -89.00     0.57311    
 -65.00 -88.00     0.47770    
 -65.00 -87.00     0.39030    
 -65.00 -86.00     0.31533    
 -65.00 -85.00     0.25131    
 -65.00 -84.00     0.19187    
 -65.00 -83.00     0.13137    
 -65.00 -82.00     0.69094E-01
 -65.00 -81.00     0.67328E-02
 -65.00 -80.00    -0.52006E-01
 -65.00 -79.00    -0.10067    
 -65.00 -78.00    -0.13620    
 -65.00 -77.00    -0.15848    
 -65.00 -76.00    -0.16640    
 -65.00 -75.00    -0.16002    
 -65.00 -74.00    -0.13791    
 -65.00 -73.00    -0.95583E-01
 -65.00 -72.00    -0.30980E-01
 -65.00 -71.00     0.56913E-01
 -65.00 -70.00     0.15911    
 -65.00 -69.00     0.26106    
 -65.00 -68.00     0.34158    
 -65.00 -67.00     0.37934    
 -65.00 -66.00     0.36113    
 -65.00 -65.00     0.28792    
 -65.00 -64.00     0.17740    
 -65.00 -63.00     0.65414E-01
 -65.00 -62.00    -0.57523E-02
 -65.00 -61.00     0.39603E-02
 -65.00 -60.00     0.11699    
 -65.00 -59.00     0.33068    
 -65.00 -58.00     0.61334    
 -65.00 -57.00     0.91089    
 -65.00 -56.00      1.1598    
 -65.00 -55.00      1.3052    
 -65.00 -54.00      1.3157    
 -65.00 -53.00      1.1951    
 -65.00 -52.00     0.98102    
 -65.00 -51.00     0.73655    
 -65.00 -50.00     0.53155    
 -65.00 -49.00     0.42334    
 -65.00 -48.00     0.44038    
 -65.00 -47.00     0.57466    
 -65.00 -46.00     0.78485    
 -65.00 -45.00      1.0108    
 -65.00 -44.00      1.1923    
 -65.00 -43.00      1.2884    
 -65.00 -42.00      1.2904    
 -65.00 -41.00      1.2240    
 -65.00 -40.00      1.1400    
 -65.00 -39.00      1.0969    
 -65.00 -38.00      1.1403    
 -65.00 -37.00      1.2856    
 -65.00 -36.00      1.5105    
 -65.00 -35.00      1.7586    
 -65.00 -34.00      1.9547    
 -65.00 -33.00      2.0255    
 -65.00 -32.00      1.9217    
 -65.00 -31.00      1.6337    
 -65.00 -30.00      1.1960    
 -65.00 -29.00     0.68045    
 -65.00 -28.00     0.17970    
 -65.00 -27.00    -0.21509    
 -65.00 -26.00    -0.43478    
 -65.00 -25.00    -0.44664    
 -65.00 -24.00    -0.25906    
 -65.00 -23.00     0.83862E-01
 -65.00 -22.00     0.51525    
 -65.00 -21.00     0.96178    
 -65.00 -20.00      1.3588    
 -65.00 -19.00      1.6609    
 -65.00 -18.00      1.8453    
 -65.00 -17.00      1.9104    
 -65.00 -16.00      1.8697    
 -65.00 -15.00      1.7443    
 -65.00 -14.00      1.5576    
 -65.00 -13.00      1.3320    
 -65.00 -12.00      1.0879    
 -65.00 -11.00     0.84487    
 -65.00 -10.00     0.62157    
 -65.00  -9.00     0.43526    
 -65.00  -8.00     0.29913    
 -65.00  -7.00     0.21895    
 -65.00  -6.00     0.19037    
 -65.00  -5.00     0.19835    
 -65.00  -4.00     0.21974    
 -65.00  -3.00     0.22892    
 -65.00  -2.00     0.20495    
 -65.00  -1.00     0.13843    
 -65.00   0.00     0.35485E-01
 -65.00   1.00    -0.82486E-01
 -65.00   2.00    -0.18378    
 -65.00   3.00    -0.23495    
 -65.00   4.00    -0.21072    
 -65.00   5.00    -0.10242    
 -65.00   6.00     0.77484E-01
 -65.00   7.00     0.29642    
 -65.00   8.00     0.50810    
 -65.00   9.00     0.66292    
 -65.00  10.00     0.71986    
 -65.00  11.00     0.65676    
 -65.00  12.00     0.47649    
 -65.00  13.00     0.20744    
 -65.00  14.00    -0.10195    
 -65.00  15.00    -0.39341    
 -65.00  16.00    -0.61148    
 -65.00  17.00    -0.71592    
 -65.00  18.00    -0.69097    
 -65.00  19.00    -0.54959    
 -65.00  20.00    -0.33143    
 -65.00  21.00    -0.94917E-01
 -65.00  22.00     0.95045E-01
 -65.00  23.00     0.18140    
 -65.00  24.00     0.12816    
 -65.00  25.00    -0.70376E-01
 -65.00  26.00    -0.38676    
 -65.00  27.00    -0.76483    
 -65.00  28.00     -1.1310    
 -65.00  29.00     -1.4101    
 -65.00  30.00     -1.5426    
 -65.00  31.00     -1.4984    
 -65.00  32.00     -1.2852    
 -65.00  33.00    -0.94697    
 -65.00  34.00    -0.55449    
 -65.00  35.00    -0.18872    
 -65.00  36.00     0.78572E-01
 -65.00  37.00     0.20203    
 -65.00  38.00     0.17324    
 -65.00  39.00     0.21760E-01
 -65.00  40.00    -0.19372    
 -65.00  41.00    -0.40184    
 -65.00  42.00    -0.53786    
 -65.00  43.00    -0.56094    
 -65.00  44.00    -0.46378    
 -65.00  45.00    -0.27316    
 -65.00  46.00    -0.39857E-01
 -65.00  47.00     0.17666    
 -65.00  48.00     0.32655    
 -65.00  49.00     0.38332    
 -65.00  50.00     0.35020    
 -65.00  51.00     0.25710    
 -65.00  52.00     0.14900    
 -65.00  53.00     0.70886E-01
 -65.00  54.00     0.53248E-01
 -65.00  55.00     0.10221    
 -65.00  56.00     0.19990    
 -65.00  57.00     0.31105    
 -65.00  58.00     0.39627    
 -65.00  59.00     0.42633    
 -65.00  60.00     0.39033    
 -65.00  61.00     0.30090    
 -65.00  62.00     0.18704    
 -65.00  63.00     0.83415E-01
 -65.00  64.00     0.17480E-01
 -65.00  65.00    -0.12670E-02
 -65.00  66.00     0.15943E-01
 -65.00  67.00     0.40885E-01
 -65.00  68.00     0.41477E-01
 -65.00  69.00    -0.50560E-02
 -65.00  70.00    -0.10145    
 -65.00  71.00    -0.22298    
 -65.00  72.00    -0.32623    
 -65.00  73.00    -0.35993    
 -65.00  74.00    -0.28354    
 -65.00  75.00    -0.86035E-01
 -65.00  76.00     0.20722    
 -65.00  77.00     0.53366    
 -65.00  78.00     0.80882    
 -65.00  79.00     0.94714    
 -65.00  80.00     0.88972    
 -65.00  81.00     0.62013    
 -65.00  82.00     0.17758    
 -65.00  83.00    -0.35079    
 -65.00  84.00    -0.84802    
 -65.00  85.00     -1.1968    
 -65.00  86.00     -1.3082    
 -65.00  87.00     -1.1490    
 -65.00  88.00    -0.74693    
 -65.00  89.00    -0.18803    
 -64.00 -89.00     0.57547    
 -64.00 -88.00     0.48274    
 -64.00 -87.00     0.39811    
 -64.00 -86.00     0.32577    
 -64.00 -85.00     0.26418    
 -64.00 -84.00     0.20675    
 -64.00 -83.00     0.14780    
 -64.00 -82.00     0.87236E-01
 -64.00 -81.00     0.25829E-01
 -64.00 -80.00    -0.32383E-01
 -64.00 -79.00    -0.81098E-01
 -64.00 -78.00    -0.11671    
 -64.00 -77.00    -0.13871    
 -64.00 -76.00    -0.14543    
 -64.00 -75.00    -0.13640    
 -64.00 -74.00    -0.10994    
 -64.00 -73.00    -0.62147E-01
 -64.00 -72.00     0.84830E-02
 -64.00 -71.00     0.10134    
 -64.00 -70.00     0.20682    
 -64.00 -69.00     0.30989    
 -64.00 -68.00     0.38976    
 -64.00 -67.00     0.42634    
 -64.00 -66.00     0.40826    
 -64.00 -65.00     0.33827    
 -64.00 -64.00     0.23526    
 -64.00 -63.00     0.13419    
 -64.00 -62.00     0.75212E-01
 -64.00 -61.00     0.94510E-01
 -64.00 -60.00     0.21012    
 -64.00 -59.00     0.41543    
 -64.00 -58.00     0.67650    
 -64.00 -57.00     0.93955    
 -64.00 -56.00      1.1441    
 -64.00 -55.00      1.2405    
 -64.00 -54.00      1.2037    
 -64.00 -53.00      1.0430    
 -64.00 -52.00     0.79994    
 -64.00 -51.00     0.53866    
 -64.00 -50.00     0.32756    
 -64.00 -49.00     0.22083    
 -64.00 -48.00     0.24331    
 -64.00 -47.00     0.38443    
 -64.00 -46.00     0.60237    
 -64.00 -45.00     0.83858    
 -64.00 -44.00      1.0357    
 -64.00 -43.00      1.1559    
 -64.00 -42.00      1.1917    
 -64.00 -41.00      1.1676    
 -64.00 -40.00      1.1302    
 -64.00 -39.00      1.1319    
 -64.00 -38.00      1.2116    
 -64.00 -37.00      1.3800    
 -64.00 -36.00      1.6135    
 -64.00 -35.00      1.8588    
 -64.00 -34.00      2.0472    
 -64.00 -33.00      2.1146    
 -64.00 -32.00      2.0200    
 -64.00 -31.00      1.7591    
 -64.00 -30.00      1.3673    
 -64.00 -29.00     0.91217    
 -64.00 -28.00     0.47789    
 -64.00 -27.00     0.14560    
 -64.00 -26.00    -0.24523E-01
 -64.00 -25.00    -0.52434E-02
 -64.00 -24.00     0.19435    
 -64.00 -23.00     0.53390    
 -64.00 -22.00     0.95305    
 -64.00 -21.00      1.3852    
 -64.00 -20.00      1.7699    
 -64.00 -19.00      2.0619    
 -64.00 -18.00      2.2345    
 -64.00 -17.00      2.2789    
 -64.00 -16.00      2.2008    
 -64.00 -15.00      2.0161    
 -64.00 -14.00      1.7476    
 -64.00 -13.00      1.4225    
 -64.00 -12.00      1.0711    
 -64.00 -11.00     0.72510    
 -64.00 -10.00     0.41540    
 -64.00  -9.00     0.16799    
 -64.00  -8.00    -0.29649E-03
 -64.00  -7.00    -0.85558E-01
 -64.00  -6.00    -0.98342E-01
 -64.00  -5.00    -0.61885E-01
 -64.00  -4.00    -0.69289E-02
 -64.00  -3.00     0.35866E-01
 -64.00  -2.00     0.43943E-01
 -64.00  -1.00     0.89774E-02
 -64.00   0.00    -0.60822E-01
 -64.00   1.00    -0.14311    
 -64.00   2.00    -0.20806    
 -64.00   3.00    -0.22736    
 -64.00   4.00    -0.18320    
 -64.00   5.00    -0.74439E-01
 -64.00   6.00     0.81623E-01
 -64.00   7.00     0.25263    
 -64.00   8.00     0.39870    
 -64.00   9.00     0.48215    
 -64.00  10.00     0.47696    
 -64.00  11.00     0.37548    
 -64.00  12.00     0.19085    
 -64.00  13.00    -0.45396E-01
 -64.00  14.00    -0.28986    
 -64.00  15.00    -0.49645    
 -64.00  16.00    -0.62619    
 -64.00  17.00    -0.65555    
 -64.00  18.00    -0.58175    
 -64.00  19.00    -0.42400    
 -64.00  20.00    -0.22038    
 -64.00  21.00    -0.20890E-01
 -64.00  22.00     0.12228    
 -64.00  23.00     0.16547    
 -64.00  24.00     0.83294E-01
 -64.00  25.00    -0.12462    
 -64.00  26.00    -0.43163    
 -64.00  27.00    -0.78776    
 -64.00  28.00     -1.1288    
 -64.00  29.00     -1.3893    
 -64.00  30.00     -1.5171    
 -64.00  31.00     -1.4854    
 -64.00  32.00     -1.3000    
 -64.00  33.00    -0.99909    
 -64.00  34.00    -0.64474    
 -64.00  35.00    -0.30883    
 -64.00  36.00    -0.55570E-01
 -64.00  37.00     0.74092E-01
 -64.00  38.00     0.72268E-01
 -64.00  39.00    -0.34782E-01
 -64.00  40.00    -0.19471    
 -64.00  41.00    -0.34421    
 -64.00  42.00    -0.42691    
 -64.00  43.00    -0.40912    
 -64.00  44.00    -0.28853    
 -64.00  45.00    -0.94005E-01
 -64.00  46.00     0.12468    
 -64.00  47.00     0.31182    
 -64.00  48.00     0.42316    
 -64.00  49.00     0.43882    
 -64.00  50.00     0.36803    
 -64.00  51.00     0.24540    
 -64.00  52.00     0.11822    
 -64.00  53.00     0.31149E-01
 -64.00  54.00     0.11934E-01
 -64.00  55.00     0.62618E-01
 -64.00  56.00     0.16080    
 -64.00  57.00     0.26767    
 -64.00  58.00     0.34220    
 -64.00  59.00     0.35599    
 -64.00  60.00     0.30091    
 -64.00  61.00     0.19395    
 -64.00  62.00     0.68581E-01
 -64.00  63.00    -0.37230E-01
 -64.00  64.00    -0.94545E-01
 -64.00  65.00    -0.94803E-01
 -64.00  66.00    -0.52229E-01
 -64.00  67.00     0.87796E-03
 -64.00  68.00     0.27897E-01
 -64.00  69.00     0.27722E-02
 -64.00  70.00    -0.79183E-01
 -64.00  71.00    -0.19332    
 -64.00  72.00    -0.29478    
 -64.00  73.00    -0.33007    
 -64.00  74.00    -0.25661    
 -64.00  75.00    -0.61919E-01
 -64.00  76.00     0.22909    
 -64.00  77.00     0.55344    
 -64.00  78.00     0.82576    
 -64.00  79.00     0.95965    
 -64.00  80.00     0.89608    
 -64.00  81.00     0.61913    
 -64.00  82.00     0.16913    
 -64.00  83.00    -0.36531    
 -64.00  84.00    -0.86594    
 -64.00  85.00     -1.2148    
 -64.00  86.00     -1.3233    
 -64.00  87.00     -1.1593    
 -64.00  88.00    -0.75231    
 -64.00  89.00    -0.18963    
 -63.00 -89.00     0.57782    
 -63.00 -88.00     0.48771    
 -63.00 -87.00     0.40577    
 -63.00 -86.00     0.33597    
 -63.00 -85.00     0.27672    
 -63.00 -84.00     0.22124    
 -63.00 -83.00     0.16389    
 -63.00 -82.00     0.10501    
 -63.00 -81.00     0.44545E-01
 -63.00 -80.00    -0.13133E-01
 -63.00 -79.00    -0.62001E-01
 -63.00 -78.00    -0.97926E-01
 -63.00 -77.00    -0.12001    
 -63.00 -76.00    -0.12620    
 -63.00 -75.00    -0.11558    
 -63.00 -74.00    -0.86203E-01
 -63.00 -73.00    -0.34778E-01
 -63.00 -72.00     0.39820E-01
 -63.00 -71.00     0.13553    
 -63.00 -70.00     0.24253    
 -63.00 -69.00     0.34564    
 -63.00 -68.00     0.42483    
 -63.00 -67.00     0.46152    
 -63.00 -66.00     0.44610    
 -63.00 -65.00     0.38292    
 -63.00 -64.00     0.29180    
 -63.00 -63.00     0.20599    
 -63.00 -62.00     0.16309    
 -63.00 -61.00     0.19485    
 -63.00 -60.00     0.31469    
 -63.00 -59.00     0.51204    
 -63.00 -58.00     0.75101    
 -63.00 -57.00     0.97859    
 -63.00 -56.00      1.1379    
 -63.00 -55.00      1.1847    
 -63.00 -54.00      1.1004    
 -63.00 -53.00     0.89979    
 -63.00 -52.00     0.62792    
 -63.00 -51.00     0.34938    
 -63.00 -50.00     0.13061    
 -63.00 -49.00     0.22448E-01
 -63.00 -48.00     0.46174E-01
 -63.00 -47.00     0.18903    
 -63.00 -46.00     0.40946    
 -63.00 -45.00     0.65121    
 -63.00 -44.00     0.86058    
 -63.00 -43.00      1.0030    
 -63.00 -42.00      1.0726    
 -63.00 -41.00      1.0920    
 -63.00 -40.00      1.1030    
 -63.00 -39.00      1.1509    
 -63.00 -38.00      1.2674    
 -63.00 -37.00      1.4579    
 -63.00 -36.00      1.6976    
 -63.00 -35.00      1.9368    
 -63.00 -34.00      2.1146    
 -63.00 -33.00      2.1765    
 -63.00 -32.00      2.0909    
 -63.00 -31.00      1.8595    
 -63.00 -30.00      1.5181    
 -63.00 -29.00      1.1291    
 -63.00 -28.00     0.76711    
 -63.00 -27.00     0.50140    
 -63.00 -26.00     0.38161    
 -63.00 -25.00     0.42830    
 -63.00 -24.00     0.63120    
 -63.00 -23.00     0.95413    
 -63.00 -22.00      1.3446    
 -63.00 -21.00      1.7447    
 -63.00 -20.00      2.1011    
 -63.00 -19.00      2.3711    
 -63.00 -18.00      2.5259    
 -63.00 -17.00      2.5510    
 -63.00 -16.00      2.4446    
 -63.00 -15.00      2.2166    
 -63.00 -14.00      1.8874    
 -63.00 -13.00      1.4868    
 -63.00 -12.00      1.0524    
 -63.00 -11.00     0.62623    
 -63.00 -10.00     0.24977    
 -63.00  -9.00    -0.42744E-01
 -63.00  -8.00    -0.23050    
 -63.00  -7.00    -0.31044    
 -63.00  -6.00    -0.29798    
 -63.00  -5.00    -0.22336    
 -63.00  -4.00    -0.12431    
 -63.00  -3.00    -0.36733E-01
 -63.00  -2.00     0.14026E-01
 -63.00  -1.00     0.18821E-01
 -63.00   0.00    -0.14328E-01
 -63.00   1.00    -0.64252E-01
 -63.00   2.00    -0.10435    
 -63.00   3.00    -0.11165    
 -63.00   4.00    -0.74517E-01
 -63.00   5.00     0.33421E-02
 -63.00   6.00     0.10356    
 -63.00   7.00     0.19823    
 -63.00   8.00     0.25783    
 -63.00   9.00     0.25954    
 -63.00  10.00     0.19362    
 -63.00  11.00     0.66285E-01
 -63.00  12.00    -0.10164    
 -63.00  13.00    -0.27949    
 -63.00  14.00    -0.43373    
 -63.00  15.00    -0.53515    
 -63.00  16.00    -0.56489    
 -63.00  17.00    -0.51806    
 -63.00  18.00    -0.40464    
 -63.00  19.00    -0.24785    
 -63.00  20.00    -0.80283E-01
 -63.00  21.00     0.61283E-01
 -63.00  22.00     0.14203    
 -63.00  23.00     0.13534    
 -63.00  24.00     0.28290E-01
 -63.00  25.00    -0.17442    
 -63.00  26.00    -0.44932    
 -63.00  27.00    -0.75651    
 -63.00  28.00     -1.0458    
 -63.00  29.00     -1.2661    
 -63.00  30.00     -1.3760    
 -63.00  31.00     -1.3537    
 -63.00  32.00     -1.2033    
 -63.00  33.00    -0.95507    
 -63.00  34.00    -0.65964    
 -63.00  35.00    -0.37619    
 -63.00  36.00    -0.15820    
 -63.00  37.00    -0.39931E-01
 -63.00  38.00    -0.27739E-01
 -63.00  39.00    -0.98938E-01
 -63.00  40.00    -0.20874    
 -63.00  41.00    -0.30355    
 -63.00  42.00    -0.33694    
 -63.00  43.00    -0.28333    
 -63.00  44.00    -0.14550    
 -63.00  45.00     0.46330E-01
 -63.00  46.00     0.24460    
 -63.00  47.00     0.39881    
 -63.00  48.00     0.47138    
 -63.00  49.00     0.44955    
 -63.00  50.00     0.34823    
 -63.00  51.00     0.20563    
 -63.00  52.00     0.69882E-01
 -63.00  53.00    -0.16276E-01
 -63.00  54.00    -0.29163E-01
 -63.00  55.00     0.28468E-01
 -63.00  56.00     0.12962    
 -63.00  57.00     0.23247    
 -63.00  58.00     0.29528    
 -63.00  59.00     0.29143    
 -63.00  60.00     0.21647    
 -63.00  61.00     0.92140E-01
 -63.00  62.00    -0.43578E-01
 -63.00  63.00    -0.14974    
 -63.00  64.00    -0.19647    
 -63.00  65.00    -0.17664    
 -63.00  66.00    -0.10791    
 -63.00  67.00    -0.26674E-01
 -63.00  68.00     0.26005E-01
 -63.00  69.00     0.21033E-01
 -63.00  70.00    -0.47778E-01
 -63.00  71.00    -0.15565    
 -63.00  72.00    -0.25608    
 -63.00  73.00    -0.29342    
 -63.00  74.00    -0.22325    
 -63.00  75.00    -0.31770E-01
 -63.00  76.00     0.25634    
 -63.00  77.00     0.57767    
 -63.00  78.00     0.84598    
 -63.00  79.00     0.97419    
 -63.00  80.00     0.90327    
 -63.00  81.00     0.61804    
 -63.00  82.00     0.16004    
 -63.00  83.00    -0.38062    
 -63.00  84.00    -0.88451    
 -63.00  85.00     -1.2331    
 -63.00  86.00     -1.3385    
 -63.00  87.00     -1.1695    
 -63.00  88.00    -0.75748    
 -63.00  89.00    -0.19108    
 -62.00 -89.00     0.58017    
 -62.00 -88.00     0.49263    
 -62.00 -87.00     0.41327    
 -62.00 -86.00     0.34590    
 -62.00 -85.00     0.28891    
 -62.00 -84.00     0.23531    
 -62.00 -83.00     0.17961    
 -62.00 -82.00     0.12234    
 -62.00 -81.00     0.62770E-01
 -62.00 -80.00     0.55964E-02
 -62.00 -79.00    -0.43549E-01
 -62.00 -78.00    -0.80045E-01
 -62.00 -77.00    -0.10264    
 -62.00 -76.00    -0.10901    
 -62.00 -75.00    -0.97862E-01
 -62.00 -74.00    -0.67018E-01
 -62.00 -73.00    -0.13754E-01
 -62.00 -72.00     0.62791E-01
 -62.00 -71.00     0.15940    
 -62.00 -70.00     0.26632    
 -62.00 -69.00     0.36859    
 -62.00 -68.00     0.44723    
 -62.00 -67.00     0.48539    
 -62.00 -66.00     0.47517    
 -62.00 -65.00     0.42231    
 -62.00 -64.00     0.34708    
 -62.00 -63.00     0.28059    
 -62.00 -62.00     0.25732    
 -62.00 -61.00     0.30422    
 -62.00 -60.00     0.42997    
 -62.00 -59.00     0.62015    
 -62.00 -58.00     0.83726    
 -62.00 -57.00      1.0295    
 -62.00 -56.00      1.1440    
 -62.00 -55.00      1.1424    
 -62.00 -54.00      1.0126    
 -62.00 -53.00     0.77447    
 -62.00 -52.00     0.47613    
 -62.00 -51.00     0.18206    
 -62.00 -50.00    -0.43792E-01
 -62.00 -49.00    -0.15443    
 -62.00 -48.00    -0.13222    
 -62.00 -47.00     0.80844E-02
 -62.00 -46.00     0.22567    
 -62.00 -45.00     0.46717    
 -62.00 -44.00     0.68316    
 -62.00 -43.00     0.84299    
 -62.00 -42.00     0.94236    
 -62.00 -41.00      1.0022    
 -62.00 -40.00      1.0592    
 -62.00 -39.00      1.1511    
 -62.00 -38.00      1.3018    
 -62.00 -37.00      1.5114    
 -62.00 -36.00      1.7537    
 -62.00 -35.00      1.9824    
 -62.00 -34.00      2.1448    
 -62.00 -33.00      2.1968    
 -62.00 -32.00      2.1165    
 -62.00 -31.00      1.9117    
 -62.00 -30.00      1.6189    
 -62.00 -29.00      1.2952    
 -62.00 -28.00      1.0044    
 -62.00 -27.00     0.80343    
 -62.00 -26.00     0.73030    
 -62.00 -25.00     0.79805    
 -62.00 -24.00     0.99473    
 -62.00 -23.00      1.2885    
 -62.00 -22.00      1.6355    
 -62.00 -21.00      1.9883    
 -62.00 -20.00      2.3023    
 -62.00 -19.00      2.5400    
 -62.00 -18.00      2.6728    
 -62.00 -17.00      2.6821    
 -62.00 -16.00      2.5595    
 -62.00 -15.00      2.3087    
 -62.00 -14.00      1.9462    
 -62.00 -13.00      1.5022    
 -62.00 -12.00      1.0189    
 -62.00 -11.00     0.54577    
 -62.00 -10.00     0.13220    
 -62.00  -9.00    -0.18107    
 -62.00  -8.00    -0.37006    
 -62.00  -7.00    -0.43248    
 -62.00  -6.00    -0.38774    
 -62.00  -5.00    -0.27187    
 -62.00  -4.00    -0.12840    
 -62.00  -3.00     0.23501E-02
 -62.00  -2.00     0.92453E-01
 -62.00  -1.00     0.13161    
 -62.00   0.00     0.12694    
 -62.00   1.00     0.97696E-01
 -62.00   2.00     0.66865E-01
 -62.00   3.00     0.52405E-01
 -62.00   4.00     0.60960E-01
 -62.00   5.00     0.85958E-01
 -62.00   6.00     0.11048    
 -62.00   7.00     0.11371    
 -62.00   8.00     0.78666E-01
 -62.00   9.00    -0.13777E-02
 -62.00  10.00    -0.11985    
 -62.00  11.00    -0.25805    
 -62.00  12.00    -0.39000    
 -62.00  13.00    -0.48925    
 -62.00  14.00    -0.53563    
 -62.00  15.00    -0.51986    
 -62.00  16.00    -0.44521    
 -62.00  17.00    -0.32598    
 -62.00  18.00    -0.18392    
 -62.00  19.00    -0.43762E-01
 -62.00  20.00     0.70784E-01
 -62.00  21.00     0.13995    
 -62.00  22.00     0.14972    
 -62.00  23.00     0.92864E-01
 -62.00  24.00    -0.30139E-01
 -62.00  25.00    -0.21031    
 -62.00  26.00    -0.42963    
 -62.00  27.00    -0.66172    
 -62.00  28.00    -0.87434    
 -62.00  29.00     -1.0342    
 -62.00  30.00     -1.1136    
 -62.00  31.00     -1.0970    
 -62.00  32.00    -0.98666    
 -62.00  33.00    -0.80363    
 -62.00  34.00    -0.58446    
 -62.00  35.00    -0.37303    
 -62.00  36.00    -0.20958    
 -62.00  37.00    -0.11989    
 -62.00  38.00    -0.10803    
 -62.00  39.00    -0.15501    
 -62.00  40.00    -0.22444    
 -62.00  41.00    -0.27351    
 -62.00  42.00    -0.26658    
 -62.00  43.00    -0.18653    
 -62.00  44.00    -0.40912E-01
 -62.00  45.00     0.13971    
 -62.00  46.00     0.31123    
 -62.00  47.00     0.42961    
 -62.00  48.00     0.46477    
 -62.00  49.00     0.41104    
 -62.00  50.00     0.28839    
 -62.00  51.00     0.13721    
 -62.00  52.00     0.47547E-02
 -62.00  53.00    -0.69823E-01
 -62.00  54.00    -0.68199E-01
 -62.00  55.00     0.14857E-02
 -62.00  56.00     0.10772    
 -62.00  57.00     0.20640    
 -62.00  58.00     0.25612    
 -62.00  59.00     0.23309    
 -62.00  60.00     0.13746    
 -62.00  61.00    -0.39189E-02
 -62.00  62.00    -0.14860    
 -62.00  63.00    -0.25305    
 -62.00  64.00    -0.28708    
 -62.00  65.00    -0.24558    
 -62.00  66.00    -0.15000    
 -62.00  67.00    -0.40909E-01
 -62.00  68.00     0.36386E-01
 -62.00  69.00     0.50024E-01
 -62.00  70.00    -0.71939E-02
 -62.00  71.00    -0.11012    
 -62.00  72.00    -0.21034    
 -62.00  73.00    -0.25024    
 -62.00  74.00    -0.18366    
 -62.00  75.00     0.42458E-02
 -62.00  76.00     0.28887    
 -62.00  77.00     0.60628    
 -62.00  78.00     0.86943    
 -62.00  79.00     0.99071    
 -62.00  80.00     0.91126    
 -62.00  81.00     0.61685    
 -62.00  82.00     0.15033    
 -62.00  83.00    -0.39670    
 -62.00  84.00    -0.90373    
 -62.00  85.00     -1.2518    
 -62.00  86.00     -1.3538    
 -62.00  87.00     -1.1796    
 -62.00  88.00    -0.76242    
 -62.00  89.00    -0.19237    
 -61.00 -89.00     0.58250    
 -61.00 -88.00     0.49747    
 -61.00 -87.00     0.42061    
 -61.00 -86.00     0.35555    
 -61.00 -85.00     0.30073    
 -61.00 -84.00     0.24892    
 -61.00 -83.00     0.19490    
 -61.00 -82.00     0.13914    
 -61.00 -81.00     0.80403E-01
 -61.00 -80.00     0.23667E-01
 -61.00 -79.00    -0.25900E-01
 -61.00 -78.00    -0.63244E-01
 -61.00 -77.00    -0.86797E-01
 -61.00 -76.00    -0.94067E-01
 -61.00 -75.00    -0.83435E-01
 -61.00 -74.00    -0.52546E-01
 -61.00 -73.00     0.84121E-03
 -61.00 -72.00     0.77409E-01
 -61.00 -71.00     0.17314    
 -61.00 -70.00     0.27861    
 -61.00 -69.00     0.37933    
 -61.00 -68.00     0.45770    
 -61.00 -67.00     0.49871    
 -61.00 -66.00     0.49613    
 -61.00 -65.00     0.45683    
 -61.00 -64.00     0.40100    
 -61.00 -63.00     0.35732    
 -61.00 -62.00     0.35667    
 -61.00 -61.00     0.42098    
 -61.00 -60.00     0.55414    
 -61.00 -59.00     0.73805    
 -61.00 -58.00     0.93406    
 -61.00 -57.00      1.0920    
 -61.00 -56.00      1.1636    
 -61.00 -55.00      1.1163    
 -61.00 -54.00     0.94465    
 -61.00 -53.00     0.67337    
 -61.00 -52.00     0.35301    
 -61.00 -51.00     0.47295E-01
 -61.00 -50.00    -0.18296    
 -61.00 -49.00    -0.29518    
 -61.00 -48.00    -0.27565    
 -61.00 -47.00    -0.14118    
 -61.00 -46.00     0.68373E-01
 -61.00 -45.00     0.30295    
 -61.00 -44.00     0.51795    
 -61.00 -43.00     0.68715    
 -61.00 -42.00     0.80838    
 -61.00 -41.00     0.90127    
 -61.00 -40.00     0.99742    
 -61.00 -39.00      1.1273    
 -61.00 -38.00      1.3069    
 -61.00 -37.00      1.5306    
 -61.00 -36.00      1.7705    
 -61.00 -35.00      1.9840    
 -61.00 -34.00      2.1260    
 -61.00 -33.00      2.1627    
 -61.00 -32.00      2.0819    
 -61.00 -31.00      1.8979    
 -61.00 -30.00      1.6478    
 -61.00 -29.00      1.3833    
 -61.00 -28.00      1.1580    
 -61.00 -27.00      1.0158    
 -61.00 -26.00     0.98279    
 -61.00 -25.00      1.0640    
 -61.00 -24.00      1.2454    
 -61.00 -23.00      1.4993    
 -61.00 -22.00      1.7907    
 -61.00 -21.00      2.0835    
 -61.00 -20.00      2.3434    
 -61.00 -19.00      2.5401    
 -61.00 -18.00      2.6473    
 -61.00 -17.00      2.6444    
 -61.00 -16.00      2.5179    
 -61.00 -15.00      2.2655    
 -61.00 -14.00      1.8993    
 -61.00 -13.00      1.4479    
 -61.00 -12.00     0.95508    
 -61.00 -11.00     0.47415    
 -61.00 -10.00     0.59238E-01
 -61.00  -9.00    -0.24537    
 -61.00  -8.00    -0.41450    
 -61.00  -7.00    -0.44740    
 -61.00  -6.00    -0.36720    
 -61.00  -5.00    -0.21452    
 -61.00  -4.00    -0.36989E-01
 -61.00  -3.00     0.12248    
 -61.00  -2.00     0.23508    
 -61.00  -1.00     0.29070    
 -61.00   0.00     0.29650    
 -61.00   1.00     0.27055    
 -61.00   2.00     0.23284    
 -61.00   3.00     0.19697    
 -61.00   4.00     0.16539    
 -61.00   5.00     0.12958    
 -61.00   6.00     0.74871E-01
 -61.00   7.00    -0.11928E-01
 -61.00   8.00    -0.13523    
 -61.00   9.00    -0.28628    
 -61.00  10.00    -0.44352    
 -61.00  11.00    -0.57760    
 -61.00  12.00    -0.65954    
 -61.00  13.00    -0.66919    
 -61.00  14.00    -0.60138    
 -61.00  15.00    -0.46771    
 -61.00  16.00    -0.29354    
 -61.00  17.00    -0.11143    
 -61.00  18.00     0.46923E-01
 -61.00  19.00     0.15758    
 -61.00  20.00     0.20824    
 -61.00  21.00     0.19844    
 -61.00  22.00     0.13664    
 -61.00  23.00     0.35838E-01
 -61.00  24.00    -0.90344E-01
 -61.00  25.00    -0.22986    
 -61.00  26.00    -0.37222    
 -61.00  27.00    -0.50711    
 -61.00  28.00    -0.62286    
 -61.00  29.00    -0.70639    
 -61.00  30.00    -0.74513    
 -61.00  31.00    -0.73078    
 -61.00  32.00    -0.66331    
 -61.00  33.00    -0.55351    
 -61.00  34.00    -0.42233    
 -61.00  35.00    -0.29658    
 -61.00  36.00    -0.20179    
 -61.00  37.00    -0.15431    
 -61.00  38.00    -0.15549    
 -61.00  39.00    -0.19025    
 -61.00  40.00    -0.23102    
 -61.00  41.00    -0.24631    
 -61.00  42.00    -0.21142    
 -61.00  43.00    -0.11737    
 -61.00  44.00     0.24334E-01
 -61.00  45.00     0.18404    
 -61.00  46.00     0.32238    
 -61.00  47.00     0.40278    
 -61.00  48.00     0.40315    
 -61.00  49.00     0.32459    
 -61.00  50.00     0.19108    
 -61.00  51.00     0.43556E-01
 -61.00  52.00    -0.73436E-01
 -61.00  53.00    -0.12602    
 -61.00  54.00    -0.10235    
 -61.00  55.00    -0.16398E-01
 -61.00  56.00     0.96122E-01
 -61.00  57.00     0.18969    
 -61.00  58.00     0.22442    
 -61.00  59.00     0.18047    
 -61.00  60.00     0.63416E-01
 -61.00  61.00    -0.94447E-01
 -61.00  62.00    -0.24638    
 -61.00  63.00    -0.34675    
 -61.00  64.00    -0.36577    
 -61.00  65.00    -0.30093    
 -61.00  66.00    -0.17784    
 -61.00  67.00    -0.41377E-01
 -61.00  68.00     0.59248E-01
 -61.00  69.00     0.89719E-01
 -61.00  70.00     0.42343E-01
 -61.00  71.00    -0.57054E-01
 -61.00  72.00    -0.15795    
 -61.00  73.00    -0.20090    
 -61.00  74.00    -0.13819    
 -61.00  75.00     0.45866E-01
 -61.00  76.00     0.32648    
 -61.00  77.00     0.63913    
 -61.00  78.00     0.89603    
 -61.00  79.00      1.0091    
 -61.00  80.00     0.92002    
 -61.00  81.00     0.61554    
 -61.00  82.00     0.13996    
 -61.00  83.00    -0.41356    
 -61.00  84.00    -0.92357    
 -61.00  85.00     -1.2709    
 -61.00  86.00     -1.3691    
 -61.00  87.00     -1.1895    
 -61.00  88.00    -0.76713    
 -61.00  89.00    -0.19351    
 -60.00 -89.00     0.58483    
 -60.00 -88.00     0.50225    
 -60.00 -87.00     0.42778    
 -60.00 -86.00     0.36492    
 -60.00 -85.00     0.31215    
 -60.00 -84.00     0.26206    
 -60.00 -83.00     0.20971    
 -60.00 -82.00     0.15534    
 -60.00 -81.00     0.97351E-01
 -60.00 -80.00     0.40950E-01
 -60.00 -79.00    -0.91961E-02
 -60.00 -78.00    -0.47671E-01
 -60.00 -77.00    -0.72632E-01
 -60.00 -76.00    -0.81507E-01
 -60.00 -75.00    -0.72402E-01
 -60.00 -74.00    -0.42808E-01
 -60.00 -73.00     0.91079E-02
 -60.00 -72.00     0.83924E-01
 -60.00 -71.00     0.17724    
 -60.00 -70.00     0.28008    
 -60.00 -69.00     0.37876    
 -60.00 -68.00     0.45723    
 -60.00 -67.00     0.50244    
 -60.00 -66.00     0.50972    
 -60.00 -65.00     0.48680    
 -60.00 -64.00     0.45319    
 -60.00 -63.00     0.43505    
 -60.00 -62.00     0.45928    
 -60.00 -61.00     0.54261    
 -60.00 -60.00     0.68426    
 -60.00 -59.00     0.86275    
 -60.00 -58.00      1.0387    
 -60.00 -57.00      1.1641    
 -60.00 -56.00      1.1955    
 -60.00 -55.00      1.1066    
 -60.00 -54.00     0.89832    
 -60.00 -53.00     0.59984    
 -60.00 -52.00     0.26365    
 -60.00 -51.00    -0.47985E-01
 -60.00 -50.00    -0.27811    
 -60.00 -49.00    -0.38921    
 -60.00 -48.00    -0.37198    
 -60.00 -47.00    -0.24553    
 -60.00 -46.00    -0.48808E-01
 -60.00 -45.00     0.17161    
 -60.00 -44.00     0.37636    
 -60.00 -43.00     0.54422    
 -60.00 -42.00     0.67581    
 -60.00 -41.00     0.79018    
 -60.00 -40.00     0.91470    
 -60.00 -39.00      1.0729    
 -60.00 -38.00      1.2734    
 -60.00 -37.00      1.5049    
 -60.00 -36.00      1.7376    
 -60.00 -35.00      1.9317    
 -60.00 -34.00      2.0493    
 -60.00 -33.00      2.0662    
 -60.00 -32.00      1.9795    
 -60.00 -31.00      1.8096    
 -60.00 -30.00      1.5945    
 -60.00 -29.00      1.3809    
 -60.00 -28.00      1.2125    
 -60.00 -27.00      1.1209    
 -60.00 -26.00      1.1203    
 -60.00 -25.00      1.2077    
 -60.00 -24.00      1.3666    
 -60.00 -23.00      1.5728    
 -60.00 -22.00      1.8001    
 -60.00 -21.00      2.0238    
 -60.00 -20.00      2.2207    
 -60.00 -19.00      2.3690    
 -60.00 -18.00      2.4472    
 -60.00 -17.00      2.4343    
 -60.00 -16.00      2.3138    
 -60.00 -15.00      2.0785    
 -60.00 -14.00      1.7359    
 -60.00 -13.00      1.3115    
 -60.00 -12.00     0.84797    
 -60.00 -11.00     0.39905    
 -60.00 -10.00     0.19611E-01
 -60.00  -9.00    -0.24609    
 -60.00  -8.00    -0.37443    
 -60.00  -7.00    -0.36775    
 -60.00  -6.00    -0.25306    
 -60.00  -5.00    -0.74550E-01
 -60.00  -4.00     0.11813    
 -60.00  -3.00     0.28213    
 -60.00  -2.00     0.39062    
 -60.00  -1.00     0.43642    
 -60.00   0.00     0.42915    
 -60.00   1.00     0.38759    
 -60.00   2.00     0.33012    
 -60.00   3.00     0.26683    
 -60.00   4.00     0.19621    
 -60.00   5.00     0.10740    
 -60.00   6.00    -0.12990E-01
 -60.00   7.00    -0.17215    
 -60.00   8.00    -0.36402    
 -60.00   9.00    -0.56677    
 -60.00  10.00    -0.74624    
 -60.00  11.00    -0.86452    
 -60.00  12.00    -0.89098    
 -60.00  13.00    -0.81229    
 -60.00  14.00    -0.63779    
 -60.00  15.00    -0.39851    
 -60.00  16.00    -0.13988    
 -60.00  17.00     0.89740E-01
 -60.00  18.00     0.25103    
 -60.00  19.00     0.32280    
 -60.00  20.00     0.30544    
 -60.00  21.00     0.21828    
 -60.00  22.00     0.91964E-01
 -60.00  23.00    -0.41186E-01
 -60.00  24.00    -0.15577    
 -60.00  25.00    -0.23827    
 -60.00  26.00    -0.28729    
 -60.00  27.00    -0.30997    
 -60.00  28.00    -0.31631    
 -60.00  29.00    -0.31410    
 -60.00  30.00    -0.30628    
 -60.00  31.00    -0.29150    
 -60.00  32.00    -0.26718    
 -60.00  33.00    -0.23320    
 -60.00  34.00    -0.19431    
 -60.00  35.00    -0.15974    
 -60.00  36.00    -0.13999    
 -60.00  37.00    -0.14194    
 -60.00  38.00    -0.16445    
 -60.00  39.00    -0.19661    
 -60.00  40.00    -0.21994    
 -60.00  41.00    -0.21416    
 -60.00  42.00    -0.16504    
 -60.00  43.00    -0.70853E-01
 -60.00  44.00     0.54299E-01
 -60.00  45.00     0.18310    
 -60.00  46.00     0.28223    
 -60.00  47.00     0.32336    
 -60.00  48.00     0.29263    
 -60.00  49.00     0.19718    
 -60.00  50.00     0.63711E-01
 -60.00  51.00    -0.68077E-01
 -60.00  52.00    -0.15821    
 -60.00  53.00    -0.17965    
 -60.00  54.00    -0.12795    
 -60.00  55.00    -0.23123E-01
 -60.00  56.00     0.95454E-01
 -60.00  57.00     0.18190    
 -60.00  58.00     0.19909    
 -60.00  59.00     0.13223    
 -60.00  60.00    -0.68731E-02
 -60.00  61.00    -0.18033    
 -60.00  62.00    -0.33738    
 -60.00  63.00    -0.43094    
 -60.00  64.00    -0.43237    
 -60.00  65.00    -0.34243    
 -60.00  66.00    -0.19123    
 -60.00  67.00    -0.28020E-01
 -60.00  68.00     0.94441E-01
 -60.00  69.00     0.13979    
 -60.00  70.00     0.10035    
 -60.00  71.00     0.29980E-02
 -60.00  72.00    -0.99470E-01
 -60.00  73.00    -0.14592    
 -60.00  74.00    -0.87273E-01
 -60.00  75.00     0.92733E-01
 -60.00  76.00     0.36889    
 -60.00  77.00     0.67602    
 -60.00  78.00     0.92562    
 -60.00  79.00      1.0294    
 -60.00  80.00     0.92946    
 -60.00  81.00     0.61406    
 -60.00  82.00     0.12894    
 -60.00  83.00    -0.43118    
 -60.00  84.00    -0.94400    
 -60.00  85.00     -1.2902    
 -60.00  86.00     -1.3844    
 -60.00  87.00     -1.1992    
 -60.00  88.00    -0.77161    
 -60.00  89.00    -0.19450    
 -59.00 -89.00     0.58714    
 -59.00 -88.00     0.50696    
 -59.00 -87.00     0.43478    
 -59.00 -86.00     0.37398    
 -59.00 -85.00     0.32315    
 -59.00 -84.00     0.27468    
 -59.00 -83.00     0.22401    
 -59.00 -82.00     0.17086    
 -59.00 -81.00     0.11352    
 -59.00 -80.00     0.57331E-01
 -59.00 -79.00     0.64429E-02
 -59.00 -78.00    -0.33441E-01
 -59.00 -77.00    -0.60258E-01
 -59.00 -76.00    -0.71411E-01
 -59.00 -75.00    -0.64764E-01
 -59.00 -74.00    -0.37696E-01
 -59.00 -73.00     0.11313E-01
 -59.00 -72.00     0.82801E-01
 -59.00 -71.00     0.17242    
 -59.00 -70.00     0.27170    
 -59.00 -69.00     0.36802    
 -59.00 -68.00     0.44704    
 -59.00 -67.00     0.49767    
 -59.00 -66.00     0.51670    
 -59.00 -65.00     0.51238    
 -59.00 -64.00     0.50304    
 -59.00 -63.00     0.51231    
 -59.00 -62.00     0.56271    
 -59.00 -61.00     0.66586    
 -59.00 -60.00     0.81648    
 -59.00 -59.00     0.99013    
 -59.00 -58.00      1.1471    
 -59.00 -57.00      1.2422    
 -59.00 -56.00      1.2368    
 -59.00 -55.00      1.1113    
 -59.00 -54.00     0.87262    
 -59.00 -53.00     0.55408    
 -59.00 -52.00     0.20951    
 -59.00 -51.00    -0.10099    
 -59.00 -50.00    -0.32500    
 -59.00 -49.00    -0.43083    
 -59.00 -48.00    -0.41415    
 -59.00 -47.00    -0.29677    
 -59.00 -46.00    -0.11710    
 -59.00 -45.00     0.81786E-01
 -59.00 -44.00     0.26601    
 -59.00 -43.00     0.41980    
 -59.00 -42.00     0.54749    
 -59.00 -41.00     0.66855    
 -59.00 -40.00     0.80734    
 -59.00 -39.00     0.98156    
 -59.00 -38.00      1.1933    
 -59.00 -37.00      1.4257    
 -59.00 -36.00      1.6470    
 -59.00 -35.00      1.8195    
 -59.00 -34.00      1.9113    
 -59.00 -33.00      1.9067    
 -59.00 -32.00      1.8109    
 -59.00 -31.00      1.6498    
 -59.00 -30.00      1.4625    
 -59.00 -29.00      1.2912    
 -59.00 -28.00      1.1705    
 -59.00 -27.00      1.1207    
 -59.00 -26.00      1.1451    
 -59.00 -25.00      1.2329    
 -59.00 -24.00      1.3648    
 -59.00 -23.00      1.5196    
 -59.00 -22.00      1.6790    
 -59.00 -21.00      1.8289    
 -59.00 -20.00      1.9576    
 -59.00 -19.00      2.0526    
 -59.00 -18.00      2.0981    
 -59.00 -17.00      2.0755    
 -59.00 -16.00      1.9669    
 -59.00 -15.00      1.7619    
 -59.00 -14.00      1.4638    
 -59.00 -13.00      1.0943    
 -59.00 -12.00     0.69291    
 -59.00 -11.00     0.31050    
 -59.00 -10.00    -0.10484E-02
 -59.00  -9.00    -0.20122    
 -59.00  -8.00    -0.27102    
 -59.00  -7.00    -0.21782    
 -59.00  -6.00    -0.73079E-01
 -59.00  -5.00     0.11639    
 -59.00  -4.00     0.30101    
 -59.00  -3.00     0.44101    
 -59.00  -2.00     0.51508    
 -59.00  -1.00     0.52249    
 -59.00   0.00     0.47858    
 -59.00   1.00     0.40551    
 -59.00   2.00     0.32183    
 -59.00   3.00     0.23489    
 -59.00   4.00     0.13887    
 -59.00   5.00     0.19049E-01
 -59.00   6.00    -0.13924    
 -59.00   7.00    -0.34057    
 -59.00   8.00    -0.57221    
 -59.00   9.00    -0.80300    
 -59.00  10.00    -0.98928    
 -59.00  11.00     -1.0865    
 -59.00  12.00     -1.0629    
 -59.00  13.00    -0.91067    
 -59.00  14.00    -0.65121    
 -59.00  15.00    -0.33140    
 -59.00  16.00    -0.12785E-01
 -59.00  17.00     0.24400    
 -59.00  18.00     0.39467    
 -59.00  19.00     0.42204    
 -59.00  20.00     0.33909    
 -59.00  21.00     0.18351    
 -59.00  22.00     0.59412E-02
 -59.00  23.00    -0.14457    
 -59.00  24.00    -0.23319    
 -59.00  25.00    -0.24663    
 -59.00  26.00    -0.19352    
 -59.00  27.00    -0.98484E-01
 -59.00  28.00     0.74399E-02
 -59.00  29.00     0.96631E-01
 -59.00  30.00     0.15178    
 -59.00  31.00     0.16821    
 -59.00  32.00     0.15163    
 -59.00  33.00     0.11313    
 -59.00  34.00     0.63805E-01
 -59.00  35.00     0.11250E-01
 -59.00  36.00    -0.40985E-01
 -59.00  37.00    -0.91307E-01
 -59.00  38.00    -0.13692    
 -59.00  39.00    -0.17161    
 -59.00  40.00    -0.18599    
 -59.00  41.00    -0.17051    
 -59.00  42.00    -0.12032    
 -59.00  43.00    -0.39500E-01
 -59.00  44.00     0.56926E-01
 -59.00  45.00     0.14559    
 -59.00  46.00     0.20049    
 -59.00  47.00     0.20215    
 -59.00  48.00     0.14480    
 -59.00  49.00     0.40684E-01
 -59.00  50.00    -0.82219E-01
 -59.00  51.00    -0.18731    
 -59.00  52.00    -0.24094    
 -59.00  53.00    -0.22426    
 -59.00  54.00    -0.14083    
 -59.00  55.00    -0.16664E-01
 -59.00  56.00     0.10596    
 -59.00  57.00     0.18201    
 -59.00  58.00     0.17842    
 -59.00  59.00     0.86471E-01
 -59.00  60.00    -0.75124E-01
 -59.00  61.00    -0.26286    
 -59.00  62.00    -0.42246    
 -59.00  63.00    -0.50605    
 -59.00  64.00    -0.48706    
 -59.00  65.00    -0.37018    
 -59.00  66.00    -0.19029    
 -59.00  67.00    -0.11288E-02
 -59.00  68.00     0.14149    
 -59.00  69.00     0.19961    
 -59.00  70.00     0.16609    
 -59.00  71.00     0.69294E-01
 -59.00  72.00    -0.35642E-01
 -59.00  73.00    -0.85964E-01
 -59.00  74.00    -0.31461E-01
 -59.00  75.00     0.14440    
 -59.00  76.00     0.41578    
 -59.00  77.00     0.71669    
 -59.00  78.00     0.95799    
 -59.00  79.00      1.0513    
 -59.00  80.00     0.93949    
 -59.00  81.00     0.61235    
 -59.00  82.00     0.11722    
 -59.00  83.00    -0.44958    
 -59.00  84.00    -0.96502    
 -59.00  85.00     -1.3099    
 -59.00  86.00     -1.3997    
 -59.00  87.00     -1.2087    
 -59.00  88.00    -0.77585    
 -59.00  89.00    -0.19532    
 -58.00 -89.00     0.58945    
 -58.00 -88.00     0.51159    
 -58.00 -87.00     0.44160    
 -58.00 -86.00     0.38274    
 -58.00 -85.00     0.33372    
 -58.00 -84.00     0.28676    
 -58.00 -83.00     0.23774    
 -58.00 -82.00     0.18563    
 -58.00 -81.00     0.12884    
 -58.00 -80.00     0.72706E-01
 -58.00 -79.00     0.20914E-01
 -58.00 -78.00    -0.20641E-01
 -58.00 -77.00    -0.49741E-01
 -58.00 -76.00    -0.63786E-01
 -58.00 -75.00    -0.60431E-01
 -58.00 -74.00    -0.36984E-01
 -58.00 -73.00     0.78714E-02
 -58.00 -72.00     0.74696E-01
 -58.00 -71.00     0.15956    
 -58.00 -70.00     0.25459    
 -58.00 -69.00     0.34841    
 -58.00 -68.00     0.42845    
 -58.00 -67.00     0.48555    
 -58.00 -66.00     0.51779    
 -58.00 -65.00     0.53363    
 -58.00 -64.00     0.54977    
 -58.00 -63.00     0.58726    
 -58.00 -62.00     0.66410    
 -58.00 -61.00     0.78695    
 -58.00 -60.00     0.94631    
 -58.00 -59.00      1.1152    
 -58.00 -58.00      1.2543    
 -58.00 -57.00      1.3213    
 -58.00 -56.00      1.2832    
 -58.00 -55.00      1.1265    
 -58.00 -54.00     0.86419    
 -58.00 -53.00     0.53334    
 -58.00 -52.00     0.18846    
 -58.00 -51.00    -0.11310    
 -58.00 -50.00    -0.32421    
 -58.00 -49.00    -0.41963    
 -58.00 -48.00    -0.40065    
 -58.00 -47.00    -0.29233    
 -58.00 -46.00    -0.13309    
 -58.00 -45.00     0.37300E-01
 -58.00 -44.00     0.19048    
 -58.00 -43.00     0.31659    
 -58.00 -42.00     0.42453    
 -58.00 -41.00     0.53554    
 -58.00 -40.00     0.67253    
 -58.00 -39.00     0.84892    
 -58.00 -38.00      1.0614    
 -58.00 -37.00      1.2884    
 -58.00 -36.00      1.4960    
 -58.00 -35.00      1.6476    
 -58.00 -34.00      1.7160    
 -58.00 -33.00      1.6920    
 -58.00 -32.00      1.5876    
 -58.00 -31.00      1.4331    
 -58.00 -30.00      1.2684    
 -58.00 -29.00      1.1317    
 -58.00 -28.00      1.0502    
 -58.00 -27.00      1.0341    
 -58.00 -26.00      1.0773    
 -58.00 -25.00      1.1618    
 -58.00 -24.00      1.2655    
 -58.00 -23.00      1.3698    
 -58.00 -22.00      1.4628    
 -58.00 -21.00      1.5401    
 -58.00 -20.00      1.6002    
 -58.00 -19.00      1.6400    
 -58.00 -18.00      1.6505    
 -58.00 -17.00      1.6167    
 -58.00 -16.00      1.5215    
 -58.00 -15.00      1.3528    
 -58.00 -14.00      1.1110    
 -58.00 -13.00     0.81396    
 -58.00 -12.00     0.49665    
 -58.00 -11.00     0.20487    
 -58.00 -10.00    -0.15605E-01
 -58.00  -9.00    -0.13124    
 -58.00  -8.00    -0.13048    
 -58.00  -7.00    -0.27636E-01
 -58.00  -6.00     0.14074    
 -58.00  -5.00     0.32585    
 -58.00  -4.00     0.48008    
 -58.00  -3.00     0.56962    
 -58.00  -2.00     0.58203    
 -58.00  -1.00     0.52667    
 -58.00   0.00     0.42796    
 -58.00   1.00     0.31414    
 -58.00   2.00     0.20574    
 -58.00   3.00     0.10794    
 -58.00   4.00     0.97768E-02
 -58.00   5.00    -0.10957    
 -58.00   6.00    -0.26961    
 -58.00   7.00    -0.47672    
 -58.00   8.00    -0.71629    
 -58.00   9.00    -0.95223    
 -58.00  10.00     -1.1347    
 -58.00  11.00     -1.2140    
 -58.00  12.00     -1.1568    
 -58.00  13.00    -0.95844    
 -58.00  14.00    -0.64781    
 -58.00  15.00    -0.28255    
 -58.00  16.00     0.64823E-01
 -58.00  17.00     0.32566    
 -58.00  18.00     0.45323    
 -58.00  19.00     0.43487    
 -58.00  20.00     0.29455    
 -58.00  21.00     0.85247E-01
 -58.00  22.00    -0.12639    
 -58.00  23.00    -0.27841    
 -58.00  24.00    -0.32958    
 -58.00  25.00    -0.26851    
 -58.00  26.00    -0.11389    
 -58.00  27.00     0.93479E-01
 -58.00  28.00     0.30387    
 -58.00  29.00     0.47251    
 -58.00  30.00     0.57016    
 -58.00  31.00     0.58777    
 -58.00  32.00     0.53483    
 -58.00  33.00     0.43299    
 -58.00  34.00     0.30781    
 -58.00  35.00     0.18177    
 -58.00  36.00     0.70316E-01
 -58.00  37.00    -0.18453E-01
 -58.00  38.00    -0.81537E-01
 -58.00  39.00    -0.11813    
 -58.00  40.00    -0.12785    
 -58.00  41.00    -0.11102    
 -58.00  42.00    -0.70652E-01
 -58.00  43.00    -0.14806E-01
 -58.00  44.00     0.42537E-01
 -58.00  45.00     0.83588E-01
 -58.00  46.00     0.90857E-01
 -58.00  47.00     0.54089E-01
 -58.00  48.00    -0.24765E-01
 -58.00  49.00    -0.12949    
 -58.00  50.00    -0.23240    
 -58.00  51.00    -0.30173    
 -58.00  52.00    -0.31173    
 -58.00  53.00    -0.25278    
 -58.00  54.00    -0.13676    
 -58.00  55.00     0.47030E-02
 -58.00  56.00     0.12743    
 -58.00  57.00     0.18851    
 -58.00  58.00     0.16027    
 -58.00  59.00     0.40965E-01
 -58.00  60.00    -0.14329    
 -58.00  61.00    -0.34353    
 -58.00  62.00    -0.50258    
 -58.00  63.00    -0.57269    
 -58.00  64.00    -0.53023    
 -58.00  65.00    -0.38452    
 -58.00  66.00    -0.17547    
 -58.00  67.00     0.38711E-01
 -58.00  68.00     0.19961    
 -58.00  69.00     0.26828    
 -58.00  70.00     0.23861    
 -58.00  71.00     0.14090    
 -58.00  72.00     0.32660E-01
 -58.00  73.00    -0.21796E-01
 -58.00  74.00     0.28596E-01
 -58.00  75.00     0.20035    
 -58.00  76.00     0.46670    
 -58.00  77.00     0.76082    
 -58.00  78.00     0.99291    
 -58.00  79.00      1.0747    
 -58.00  80.00     0.94998    
 -58.00  81.00     0.61034    
 -58.00  82.00     0.10477    
 -58.00  83.00    -0.46874    
 -58.00  84.00    -0.98661    
 -58.00  85.00     -1.3298    
 -58.00  86.00     -1.4150    
 -58.00  87.00     -1.2180    
 -58.00  88.00    -0.77983    
 -58.00  89.00    -0.19599    
 -57.00 -89.00     0.59174    
 -57.00 -88.00     0.51615    
 -57.00 -87.00     0.44824    
 -57.00 -86.00     0.39119    
 -57.00 -85.00     0.34384    
 -57.00 -84.00     0.29827    
 -57.00 -83.00     0.25084    
 -57.00 -82.00     0.19960    
 -57.00 -81.00     0.14323    
 -57.00 -80.00     0.86988E-01
 -57.00 -79.00     0.34138E-01
 -57.00 -78.00    -0.93304E-02
 -57.00 -77.00    -0.41099E-01
 -57.00 -76.00    -0.58580E-01
 -57.00 -75.00    -0.59237E-01
 -57.00 -74.00    -0.40340E-01
 -57.00 -73.00    -0.67710E-03
 -57.00 -72.00     0.60419E-01
 -57.00 -71.00     0.13973    
 -57.00 -70.00     0.23003    
 -57.00 -69.00     0.32135    
 -57.00 -68.00     0.40289    
 -57.00 -67.00     0.46727    
 -57.00 -66.00     0.51371    
 -57.00 -65.00     0.55045    
 -57.00 -64.00     0.59241    
 -57.00 -63.00     0.65789    
 -57.00 -62.00     0.76035    
 -57.00 -61.00     0.90177    
 -57.00 -60.00      1.0689    
 -57.00 -59.00      1.2327    
 -57.00 -58.00      1.3547    
 -57.00 -57.00      1.3959    
 -57.00 -56.00      1.3290    
 -57.00 -55.00      1.1468    
 -57.00 -54.00     0.86779    
 -57.00 -53.00     0.53241    
 -57.00 -52.00     0.19526    
 -57.00 -51.00    -0.89564E-01
