 -93.00 -55.00     0.28936    
 -93.00 -54.00     0.33417    
 -93.00 -53.00     0.36068    
 -93.00 -52.00     0.35166    
 -93.00 -51.00     0.29732    
 -93.00 -50.00     0.19794    
 -93.00 -49.00     0.63673E-01
 -93.00 -48.00    -0.88406E-01
 -93.00 -47.00    -0.23882    
 -93.00 -46.00    -0.37037    
 -93.00 -45.00    -0.47139    
 -93.00 -44.00    -0.53695    
 -93.00 -43.00    -0.56792    
 -93.00 -42.00    -0.56891    
 -93.00 -41.00    -0.54603    
 -93.00 -40.00    -0.50535    
 -93.00 -39.00    -0.45291    
 -93.00 -38.00    -0.39545    
 -93.00 -37.00    -0.34140    
 -93.00 -36.00    -0.30114    
 -93.00 -35.00    -0.28574    
 -93.00 -34.00    -0.30430    
 -93.00 -33.00    -0.36076    
 -93.00 -32.00    -0.45128    
 -93.00 -31.00    -0.56361    
 -93.00 -30.00    -0.67911    
 -93.00 -29.00    -0.77728    
 -93.00 -28.00    -0.84164    
 -93.00 -27.00    -0.86501    
 -93.00 -26.00    -0.85238    
 -93.00 -25.00    -0.82006    
 -93.00 -24.00    -0.79090    
 -93.00 -23.00    -0.78682    
 -93.00 -22.00    -0.82089    
 -93.00 -21.00    -0.89152    
 -93.00 -20.00    -0.98094    
 -93.00 -19.00     -1.0587    
 -93.00 -18.00     -1.0897    
 -93.00 -17.00     -1.0448    
 -93.00 -16.00    -0.90970    
 -93.00 -15.00    -0.69179    
 -93.00 -14.00    -0.41975    
 -93.00 -13.00    -0.13807    
 -93.00 -12.00     0.10339    
 -93.00 -11.00     0.26156    
 -93.00 -10.00     0.31093    
 -93.00  -9.00     0.24981    
 -93.00  -8.00     0.10062    
 -93.00  -7.00    -0.95866E-01
 -93.00  -6.00    -0.29054    
 -93.00  -5.00    -0.43755    
 -93.00  -4.00    -0.50436    
 -93.00  -3.00    -0.47786    
 -93.00  -2.00    -0.36542    
 -93.00  -1.00    -0.19102    
 -93.00   0.00     0.11894E-01
 -93.00   1.00     0.20884    
 -93.00   2.00     0.37168    
 -93.00   3.00     0.48347    
 -93.00   4.00     0.54004    
 -93.00   5.00     0.54860    
 -93.00   6.00     0.52432    
 -93.00   7.00     0.48600    
 -93.00   8.00     0.45204    
 -93.00   9.00     0.43723    
 -93.00  10.00     0.45084    
 -93.00  11.00     0.49575    
 -93.00  12.00     0.56858    
 -93.00  13.00     0.66057    
 -93.00  14.00     0.75906    
 -93.00  15.00     0.84963    
 -93.00  16.00     0.91864    
 -93.00  17.00     0.95596    
 -93.00  18.00     0.95715    
 -93.00  19.00     0.92473    
 -93.00  20.00     0.86775    
 -93.00  21.00     0.79985    
 -93.00  22.00     0.73574    
 -93.00  23.00     0.68736    
 -93.00  24.00     0.66057    
 -93.00  25.00     0.65345    
 -93.00  26.00     0.65703    
 -93.00  27.00     0.65809    
 -93.00  28.00     0.64351    
 -93.00  29.00     0.60468    
 -93.00  30.00     0.54057    
 -93.00  31.00     0.45848    
 -93.00  32.00     0.37211    
 -93.00  33.00     0.29741    
 -93.00  34.00     0.24774    
 -93.00  35.00     0.22966    
 -93.00  36.00     0.24098    
 -93.00  37.00     0.27148    
 -93.00  38.00     0.30630    
 -93.00  39.00     0.33061    
 -93.00  40.00     0.33417    
 -93.00  41.00     0.31406    
 -93.00  42.00     0.27491    
 -93.00  43.00     0.22619    
 -93.00  44.00     0.17817    
 -93.00  45.00     0.13754    
 -93.00  46.00     0.10457    
 -93.00  47.00     0.72803E-01
 -93.00  48.00     0.31945E-01
 -93.00  49.00    -0.27917E-01
 -93.00  50.00    -0.11121    
 -93.00  51.00    -0.21359    
 -93.00  52.00    -0.32121    
 -93.00  53.00    -0.41327    
 -93.00  54.00    -0.46739    
 -93.00  55.00    -0.46617    
 -93.00  56.00    -0.40222    
 -93.00  57.00    -0.28128    
 -93.00  58.00    -0.12123    
 -93.00  59.00     0.51803E-01
 -93.00  60.00     0.21068    
 -93.00  61.00     0.33285    
 -93.00  62.00     0.40606    
 -93.00  63.00     0.43037    
 -93.00  64.00     0.41627    
 -93.00  65.00     0.38055    
 -93.00  66.00     0.34038    
 -93.00  67.00     0.30851    
 -93.00  68.00     0.28986    
 -93.00  69.00     0.28130    
 -93.00  70.00     0.27372    
 -93.00  71.00     0.25700    
 -93.00  72.00     0.22269    
 -93.00  73.00     0.16790    
 -93.00  74.00     0.96368E-01
 -93.00  75.00     0.17503E-01
 -93.00  76.00    -0.57097E-01
 -93.00  77.00    -0.11667    
 -93.00  78.00    -0.15431    
 -93.00  79.00    -0.16816    
 -93.00  80.00    -0.16118    
 -93.00  81.00    -0.14002    
 -93.00  82.00    -0.11056    
 -93.00  83.00    -0.78971E-01
 -93.00  84.00    -0.48375E-01
 -93.00  85.00    -0.17633E-01
 -93.00  86.00     0.18558E-01
 -93.00  87.00     0.62772E-01
 -93.00  88.00     0.11989    
 -93.00  89.00     0.18863    
 -92.00 -89.00    -0.77615E-02
 -92.00 -88.00    -0.58697E-02
 -92.00 -87.00     0.55424E-01
 -92.00 -86.00     0.15346    
 -92.00 -85.00     0.25627    
 -92.00 -84.00     0.32761    
 -92.00 -83.00     0.34119    
 -92.00 -82.00     0.28507    
 -92.00 -81.00     0.17223    
 -92.00 -80.00     0.30009E-01
 -92.00 -79.00    -0.10502    
 -92.00 -78.00    -0.19870    
 -92.00 -77.00    -0.22771    
 -92.00 -76.00    -0.18693    
 -92.00 -75.00    -0.88511E-01
 -92.00 -74.00     0.42163E-01
 -92.00 -73.00     0.17529    
 -92.00 -72.00     0.28599    
 -92.00 -71.00     0.35941    
 -92.00 -70.00     0.39411    
 -92.00 -69.00     0.40022    
 -92.00 -68.00     0.39274    
 -92.00 -67.00     0.38612    
 -92.00 -66.00     0.38825    
 -92.00 -65.00     0.39853    
 -92.00 -64.00     0.41041    
 -92.00 -63.00     0.41405    
 -92.00 -62.00     0.40212    
 -92.00 -61.00     0.37374    
 -92.00 -60.00     0.33556    
 -92.00 -59.00     0.29951    
 -92.00 -58.00     0.27844    
 -92.00 -57.00     0.28107    
 -92.00 -56.00     0.30790    
 -92.00 -55.00     0.34986    
 -92.00 -54.00     0.39040    
 -92.00 -53.00     0.41019    
 -92.00 -52.00     0.39237    
 -92.00 -51.00     0.32784    
 -92.00 -50.00     0.21784    
 -92.00 -49.00     0.73265E-01
 -92.00 -48.00    -0.88187E-01
 -92.00 -47.00    -0.24673    
 -92.00 -46.00    -0.38495    
 -92.00 -45.00    -0.49078    
 -92.00 -44.00    -0.55864    
 -92.00 -43.00    -0.58838    
 -92.00 -42.00    -0.58329    
 -92.00 -41.00    -0.54834    
 -92.00 -40.00    -0.48906    
 -92.00 -39.00    -0.41208    
 -92.00 -38.00    -0.32620    
 -92.00 -37.00    -0.24330    
 -92.00 -36.00    -0.17811    
 -92.00 -35.00    -0.14614    
 -92.00 -34.00    -0.16000    
 -92.00 -33.00    -0.22524    
 -92.00 -32.00    -0.33722    
 -92.00 -31.00    -0.48037    
 -92.00 -30.00    -0.63091    
 -92.00 -29.00    -0.76235    
 -92.00 -28.00    -0.85275    
 -92.00 -27.00    -0.89121    
 -92.00 -26.00    -0.88156    
 -92.00 -25.00    -0.84164    
 -92.00 -24.00    -0.79809    
 -92.00 -23.00    -0.77784    
 -92.00 -22.00    -0.79897    
 -92.00 -21.00    -0.86368    
 -92.00 -20.00    -0.95594    
 -92.00 -19.00     -1.0448    
 -92.00 -18.00     -1.0928    
 -92.00 -17.00     -1.0669    
 -92.00 -16.00    -0.94930    
 -92.00 -15.00    -0.74384    
 -92.00 -14.00    -0.47722    
 -92.00 -13.00    -0.19327    
 -92.00 -12.00     0.57578E-01
 -92.00 -11.00     0.23087    
 -92.00 -10.00     0.29935    
 -92.00  -9.00     0.25959    
 -92.00  -8.00     0.13245    
 -92.00  -7.00    -0.42726E-01
 -92.00  -6.00    -0.21822    
 -92.00  -5.00    -0.34969    
 -92.00  -4.00    -0.40615    
 -92.00  -3.00    -0.37599    
 -92.00  -2.00    -0.26763    
 -92.00  -1.00    -0.10534    
 -92.00   0.00     0.78211E-01
 -92.00   1.00     0.25038    
 -92.00   2.00     0.38575    
 -92.00   3.00     0.47051    
 -92.00   4.00     0.50340    
 -92.00   5.00     0.49384    
 -92.00   6.00     0.45800    
 -92.00   7.00     0.41445    
 -92.00   8.00     0.38028    
 -92.00   9.00     0.36829    
 -92.00  10.00     0.38561    
 -92.00  11.00     0.43330    
 -92.00  12.00     0.50683    
 -92.00  13.00     0.59704    
 -92.00  14.00     0.69155    
 -92.00  15.00     0.77674    
 -92.00  16.00     0.83997    
 -92.00  17.00     0.87216    
 -92.00  18.00     0.86988    
 -92.00  19.00     0.83654    
 -92.00  20.00     0.78203    
 -92.00  21.00     0.72059    
 -92.00  22.00     0.66734    
 -92.00  23.00     0.63414    
 -92.00  24.00     0.62611    
 -92.00  25.00     0.63986    
 -92.00  26.00     0.66419    
 -92.00  27.00     0.68323    
 -92.00  28.00     0.68118    
 -92.00  29.00     0.64727    
 -92.00  30.00     0.57941    
 -92.00  31.00     0.48522    
 -92.00  32.00     0.38019    
 -92.00  33.00     0.28328    
 -92.00  34.00     0.21149    
 -92.00  35.00     0.17498    
 -92.00  36.00     0.17436    
 -92.00  37.00     0.20096    
 -92.00  38.00     0.23992    
 -92.00  39.00     0.27501    
 -92.00  40.00     0.29351    
 -92.00  41.00     0.28959    
 -92.00  42.00     0.26504    
 -92.00  43.00     0.22714    
 -92.00  44.00     0.18483    
 -92.00  45.00     0.14445    
 -92.00  46.00     0.10677    
 -92.00  47.00     0.66479E-01
 -92.00  48.00     0.14731E-01
 -92.00  49.00    -0.56852E-01
 -92.00  50.00    -0.15124    
 -92.00  51.00    -0.26281    
 -92.00  52.00    -0.37673    
 -92.00  53.00    -0.47160    
 -92.00  54.00    -0.52475    
 -92.00  55.00    -0.51891    
 -92.00  56.00    -0.44733    
 -92.00  57.00    -0.31674    
 -92.00  58.00    -0.14630    
 -92.00  59.00     0.36496E-01
 -92.00  60.00     0.20325    
 -92.00  61.00     0.33043    
 -92.00  62.00     0.40540    
 -92.00  63.00     0.42828    
 -92.00  64.00     0.41016    
 -92.00  65.00     0.36868    
 -92.00  66.00     0.32220    
 -92.00  67.00     0.28431    
 -92.00  68.00     0.26082    
 -92.00  69.00     0.24912    
 -92.00  70.00     0.24028    
 -92.00  71.00     0.22425    
 -92.00  72.00     0.19218    
 -92.00  73.00     0.14097    
 -92.00  74.00     0.73957E-01
 -92.00  75.00     0.57930E-04
 -92.00  76.00    -0.69731E-01
 -92.00  77.00    -0.12502    
 -92.00  78.00    -0.15923    
 -92.00  79.00    -0.17097    
 -92.00  80.00    -0.16315    
 -92.00  81.00    -0.14220    
 -92.00  82.00    -0.11363    
 -92.00  83.00    -0.83038E-01
 -92.00  84.00    -0.53034E-01
 -92.00  85.00    -0.22177E-01
 -92.00  86.00     0.14909E-01
 -92.00  87.00     0.60515E-01
 -92.00  88.00     0.11903    
 -92.00  89.00     0.18870    
 -91.00 -89.00    -0.89467E-02
 -91.00 -88.00    -0.76587E-02
 -91.00 -87.00     0.53640E-01
 -91.00 -86.00     0.15203    
 -91.00 -85.00     0.25519    
 -91.00 -84.00     0.32630    
 -91.00 -83.00     0.33904    
 -91.00 -82.00     0.28101    
 -91.00 -81.00     0.16573    
 -91.00 -80.00     0.20686E-01
 -91.00 -79.00    -0.11698    
 -91.00 -78.00    -0.21321    
 -91.00 -77.00    -0.24435    
 -91.00 -76.00    -0.20559    
 -91.00 -75.00    -0.10919    
 -91.00 -74.00     0.19649E-01
 -91.00 -73.00     0.15136    
 -91.00 -72.00     0.26139    
 -91.00 -71.00     0.33574    
 -91.00 -70.00     0.37327    
 -91.00 -69.00     0.38436    
 -91.00 -68.00     0.38389    
 -91.00 -67.00     0.38571    
 -91.00 -66.00     0.39690    
 -91.00 -65.00     0.41589    
 -91.00 -64.00     0.43515    
 -91.00 -63.00     0.44474    
 -91.00 -62.00     0.43716    
 -91.00 -61.00     0.41192    
 -91.00 -60.00     0.37618    
 -91.00 -59.00     0.34223    
 -91.00 -58.00     0.32311    
 -91.00 -57.00     0.32735    
 -91.00 -56.00     0.35497    
 -91.00 -55.00     0.39639    
 -91.00 -54.00     0.43463    
 -91.00 -53.00     0.45037    
 -91.00 -52.00     0.42710    
 -91.00 -51.00     0.35647    
 -91.00 -50.00     0.24062    
 -91.00 -49.00     0.91161E-01
 -91.00 -48.00    -0.73732E-01
 -91.00 -47.00    -0.23423    
 -91.00 -46.00    -0.37304    
 -91.00 -45.00    -0.47827    
 -91.00 -44.00    -0.54414    
 -91.00 -43.00    -0.56995    
 -91.00 -42.00    -0.55799    
 -91.00 -41.00    -0.51211    
 -91.00 -40.00    -0.43712    
 -91.00 -39.00    -0.33976    
 -91.00 -38.00    -0.23020    
 -91.00 -37.00    -0.12304    
 -91.00 -36.00    -0.36712E-01
 -91.00 -35.00     0.93576E-02
 -91.00 -34.00    -0.69143E-03
 -91.00 -33.00    -0.74046E-01
 -91.00 -32.00    -0.20544    
 -91.00 -31.00    -0.37635    
 -91.00 -30.00    -0.55813    
 -91.00 -29.00    -0.71856    
 -91.00 -28.00    -0.83029    
 -91.00 -27.00    -0.87861    
 -91.00 -26.00    -0.86595    
 -91.00 -25.00    -0.81155    
 -91.00 -24.00    -0.74577    
 -91.00 -23.00    -0.70078    
 -91.00 -22.00    -0.70015    
 -91.00 -21.00    -0.75063    
 -91.00 -20.00    -0.83894    
 -91.00 -19.00    -0.93462    
 -91.00 -18.00    -0.99856    
 -91.00 -17.00    -0.99464    
 -91.00 -16.00    -0.90106    
 -91.00 -15.00    -0.71801    
 -91.00 -14.00    -0.46908    
 -91.00 -13.00    -0.19611    
 -91.00 -12.00     0.51354E-01
 -91.00 -11.00     0.22882    
 -91.00 -10.00     0.30826    
 -91.00  -9.00     0.28493    
 -91.00  -8.00     0.17795    
 -91.00  -7.00     0.24511E-01
 -91.00  -6.00    -0.13022    
 -91.00  -5.00    -0.24464    
 -91.00  -4.00    -0.29047    
 -91.00  -3.00    -0.25827    
 -91.00  -2.00    -0.15760    
 -91.00  -1.00    -0.12498E-01
 -91.00   0.00     0.14619    
 -91.00   1.00     0.28900    
 -91.00   2.00     0.39445    
 -91.00   3.00     0.45266    
 -91.00   4.00     0.46543    
 -91.00   5.00     0.44364    
 -91.00   6.00     0.40307    
 -91.00   7.00     0.36011    
 -91.00   8.00     0.32850    
 -91.00   9.00     0.31739    
 -91.00  10.00     0.33088    
 -91.00  11.00     0.36833    
 -91.00  12.00     0.42521    
 -91.00  13.00     0.49403    
 -91.00  14.00     0.56525    
 -91.00  15.00     0.62858    
 -91.00  16.00     0.67451    
 -91.00  17.00     0.69628    
 -91.00  18.00     0.69169    
 -91.00  19.00     0.66428    
 -91.00  20.00     0.62320    
 -91.00  21.00     0.58145    
 -91.00  22.00     0.55261    
 -91.00  23.00     0.54697    
 -91.00  24.00     0.56799    
 -91.00  25.00     0.61058    
 -91.00  26.00     0.66162    
 -91.00  27.00     0.70321    
 -91.00  28.00     0.71753    
 -91.00  29.00     0.69220    
 -91.00  30.00     0.62419    
 -91.00  31.00     0.52132    
 -91.00  32.00     0.40046    
 -91.00  33.00     0.28308    
 -91.00  34.00     0.18943    
 -91.00  35.00     0.13312    
 -91.00  36.00     0.11776    
 -91.00  37.00     0.13668    
 -91.00  38.00     0.17568    
 -91.00  39.00     0.21784    
 -91.00  40.00     0.24863    
 -91.00  41.00     0.25970    
 -91.00  42.00     0.25019    
 -91.00  43.00     0.22505    
 -91.00  44.00     0.19156    
 -91.00  45.00     0.15522    
 -91.00  46.00     0.11677    
 -91.00  47.00     0.71507E-01
 -91.00  48.00     0.11610E-01
 -91.00  49.00    -0.70064E-01
 -91.00  50.00    -0.17521    
 -91.00  51.00    -0.29694    
 -91.00  52.00    -0.41931    
 -91.00  53.00    -0.52005    
 -91.00  54.00    -0.57589    
 -91.00  55.00    -0.56925    
 -91.00  56.00    -0.49360    
 -91.00  57.00    -0.35630    
 -91.00  58.00    -0.17752    
 -91.00  59.00     0.13929E-01
 -91.00  60.00     0.18831    
 -91.00  61.00     0.32094    
 -91.00  62.00     0.39843    
 -91.00  63.00     0.42068    
 -91.00  64.00     0.39910    
 -91.00  65.00     0.35204    
 -91.00  66.00     0.29899    
 -91.00  67.00     0.25457    
 -91.00  68.00     0.22564    
 -91.00  69.00     0.21030    
 -91.00  70.00     0.20004    
 -91.00  71.00     0.18494    
 -91.00  72.00     0.15577    
 -91.00  73.00     0.10910    
 -91.00  74.00     0.47728E-01
 -91.00  75.00    -0.20086E-01
 -91.00  76.00    -0.84091E-01
 -91.00  77.00    -0.13435    
 -91.00  78.00    -0.16465    
 -91.00  79.00    -0.17399    
 -91.00  80.00    -0.16521    
 -91.00  81.00    -0.14442    
 -91.00  82.00    -0.11674    
 -91.00  83.00    -0.87164E-01
 -91.00  84.00    -0.57746E-01
 -91.00  85.00    -0.26716E-01
 -91.00  86.00     0.11282E-01
 -91.00  87.00     0.58309E-01
 -91.00  88.00     0.11821    
 -91.00  89.00     0.18880    
 -90.00 -89.00    -0.10118E-01
 -90.00 -88.00    -0.94464E-02
 -90.00 -87.00     0.51815E-01
 -90.00 -86.00     0.15054    
 -90.00 -85.00     0.25407    
 -90.00 -84.00     0.32503    
 -90.00 -83.00     0.33706    
 -90.00 -82.00     0.27745    
 -90.00 -81.00     0.16013    
 -90.00 -80.00     0.12684E-01
 -90.00 -79.00    -0.12724    
 -90.00 -78.00    -0.22568    
 -90.00 -77.00    -0.25877    
 -90.00 -76.00    -0.22202    
 -90.00 -75.00    -0.12780    
 -90.00 -74.00    -0.11618E-02
 -90.00 -73.00     0.12863    
 -90.00 -72.00     0.23739    
 -90.00 -71.00     0.31200    
 -90.00 -70.00     0.35166    
 -90.00 -69.00     0.36701    
 -90.00 -68.00     0.37278    
 -90.00 -67.00     0.38215    
 -90.00 -66.00     0.40131    
 -90.00 -65.00     0.42775    
 -90.00 -64.00     0.45289    
 -90.00 -63.00     0.46665    
 -90.00 -62.00     0.46146    
 -90.00 -61.00     0.43731    
 -90.00 -60.00     0.40206    
 -90.00 -59.00     0.36855    
 -90.00 -58.00     0.35016    
 -90.00 -57.00     0.35540    
 -90.00 -56.00     0.38391    
 -90.00 -55.00     0.42571    
 -90.00 -54.00     0.46346    
 -90.00 -53.00     0.47789    
 -90.00 -52.00     0.45288    
 -90.00 -51.00     0.38082    
 -90.00 -50.00     0.26467    
 -90.00 -49.00     0.11662    
 -90.00 -48.00    -0.44960E-01
 -90.00 -47.00    -0.20058    
 -90.00 -46.00    -0.33363    
 -90.00 -45.00    -0.43294    
 -90.00 -44.00    -0.49319    
 -90.00 -43.00    -0.51360    
 -90.00 -42.00    -0.49576    
 -90.00 -41.00    -0.44238    
 -90.00 -40.00    -0.35720    
 -90.00 -39.00    -0.24644    
 -90.00 -38.00    -0.12080    
 -90.00 -37.00     0.34059E-02
 -90.00 -36.00     0.10501    
 -90.00 -35.00     0.16140    
 -90.00 -34.00     0.15394    
 -90.00 -33.00     0.73963E-01
 -90.00 -32.00    -0.72845E-01
 -90.00 -31.00    -0.26544    
 -90.00 -30.00    -0.47091    
 -90.00 -29.00    -0.65187    
 -90.00 -28.00    -0.77609    
 -90.00 -27.00    -0.82542    
 -90.00 -26.00    -0.80111    
 -90.00 -25.00    -0.72385    
 -90.00 -24.00    -0.62776    
 -90.00 -23.00    -0.55029    
 -90.00 -22.00    -0.52060    
 -90.00 -21.00    -0.55029    
 -90.00 -20.00    -0.62915    
 -90.00 -19.00    -0.72768    
 -90.00 -18.00    -0.80557    
 -90.00 -17.00    -0.82389    
 -90.00 -16.00    -0.75713    
 -90.00 -15.00    -0.60158    
 -90.00 -14.00    -0.37743    
 -90.00 -13.00    -0.12393    
 -90.00 -12.00     0.11104    
 -90.00 -11.00     0.28371    
 -90.00 -10.00     0.36599    
 -90.00  -9.00     0.35234    
 -90.00  -8.00     0.26038    
 -90.00  -7.00     0.12509    
 -90.00  -6.00    -0.11185E-01
 -90.00  -5.00    -0.11004    
 -90.00  -4.00    -0.14635    
 -90.00  -3.00    -0.11315    
 -90.00  -2.00    -0.21262E-01
 -90.00  -1.00     0.10572    
 -90.00   0.00     0.23913    
 -90.00   1.00     0.35317    
 -90.00   2.00     0.43072    
 -90.00   3.00     0.46595    
 -90.00   4.00     0.46345    
 -90.00   5.00     0.43481    
 -90.00   6.00     0.39420    
 -90.00   7.00     0.35448    
 -90.00   8.00     0.32469    
 -90.00   9.00     0.30934    
 -90.00  10.00     0.30913    
 -90.00  11.00     0.32217    
 -90.00  12.00     0.34517    
 -90.00  13.00     0.37414    
 -90.00  14.00     0.40455    
 -90.00  15.00     0.43154    
 -90.00  16.00     0.45035    
 -90.00  17.00     0.45742    
 -90.00  18.00     0.45177    
 -90.00  19.00     0.43625    
 -90.00  20.00     0.41784    
 -90.00  21.00     0.40652    
 -90.00  22.00     0.41269    
 -90.00  23.00     0.44376    
 -90.00  24.00     0.50089    
 -90.00  25.00     0.57713    
 -90.00  26.00     0.65786    
 -90.00  27.00     0.72382    
 -90.00  28.00     0.75593    
 -90.00  29.00     0.74070    
 -90.00  30.00     0.67444    
 -90.00  31.00     0.56503    
 -90.00  32.00     0.43036    
 -90.00  33.00     0.29394    
 -90.00  34.00     0.17884    
 -90.00  35.00     0.10187    
 -90.00  36.00     0.69674E-01
 -90.00  37.00     0.77881E-01
 -90.00  38.00     0.11348    
 -90.00  39.00     0.15945    
 -90.00  40.00     0.19999    
 -90.00  41.00     0.22468    
 -90.00  42.00     0.23019    
 -90.00  43.00     0.21915    
 -90.00  44.00     0.19700    
 -90.00  45.00     0.16805    
 -90.00  46.00     0.13257    
 -90.00  47.00     0.86069E-01
 -90.00  48.00     0.21295E-01
 -90.00  49.00    -0.67991E-01
 -90.00  50.00    -0.18247    
 -90.00  51.00    -0.31416    
 -90.00  52.00    -0.44601    
 -90.00  53.00    -0.55476    
 -90.00  54.00    -0.61630    
 -90.00  55.00    -0.61238    
 -90.00  56.00    -0.53631    
 -90.00  57.00    -0.39565    
 -90.00  58.00    -0.21132    
 -90.00  59.00    -0.13171E-01
 -90.00  60.00     0.16770    
 -90.00  61.00     0.30534    
 -90.00  62.00     0.38544    
 -90.00  63.00     0.40738    
 -90.00  64.00     0.38262    
 -90.00  65.00     0.33009    
 -90.00  66.00     0.27031    
 -90.00  67.00     0.21906    
 -90.00  68.00     0.18431    
 -90.00  69.00     0.16510    
 -90.00  70.00     0.15345    
 -90.00  71.00     0.13961    
 -90.00  72.00     0.11405    
 -90.00  73.00     0.72853E-01
 -90.00  74.00     0.18171E-01
 -90.00  75.00    -0.42545E-01
 -90.00  76.00    -0.99887E-01
 -90.00  77.00    -0.14446    
 -90.00  78.00    -0.17044    
 -90.00  79.00    -0.17716    
 -90.00  80.00    -0.16733    
 -90.00  81.00    -0.14667    
 -90.00  82.00    -0.11989    
 -90.00  83.00    -0.91340E-01
 -90.00  84.00    -0.62501E-01
 -90.00  85.00    -0.31240E-01
 -90.00  86.00     0.76858E-02
 -90.00  87.00     0.56159E-01
 -90.00  88.00     0.11742    
 -90.00  89.00     0.18892    
 -89.00 -89.00    -0.11276E-01
 -89.00 -88.00    -0.11234E-01
 -89.00 -87.00     0.49948E-01
 -89.00 -86.00     0.14901    
 -89.00 -85.00     0.25290    
 -89.00 -84.00     0.32380    
 -89.00 -83.00     0.33526    
 -89.00 -82.00     0.27443    
 -89.00 -81.00     0.15549    
 -89.00 -80.00     0.61070E-02
 -89.00 -79.00    -0.13562    
 -89.00 -78.00    -0.23585    
 -89.00 -77.00    -0.27064    
 -89.00 -76.00    -0.23577    
 -89.00 -75.00    -0.14378    
 -89.00 -74.00    -0.19588E-01
 -89.00 -73.00     0.10786    
 -89.00 -72.00     0.21483    
 -89.00 -71.00     0.28897    
 -89.00 -70.00     0.33000    
 -89.00 -69.00     0.34876    
 -89.00 -68.00     0.35983    
 -89.00 -67.00     0.37570    
 -89.00 -66.00     0.40158    
 -89.00 -65.00     0.43406    
 -89.00 -64.00     0.46357    
 -89.00 -63.00     0.47968    
 -89.00 -62.00     0.47493    
 -89.00 -61.00     0.44985    
 -89.00 -60.00     0.41307    
 -89.00 -59.00     0.37815    
 -89.00 -58.00     0.35899    
 -89.00 -57.00     0.36420    
 -89.00 -56.00     0.39326    
 -89.00 -55.00     0.43589    
 -89.00 -54.00     0.47455    
 -89.00 -53.00     0.49007    
 -89.00 -52.00     0.46685    
 -89.00 -51.00     0.39798    
 -89.00 -50.00     0.28714    
 -89.00 -49.00     0.14690    
 -89.00 -48.00    -0.45411E-02
 -89.00 -47.00    -0.14852    
 -89.00 -46.00    -0.26970    
 -89.00 -45.00    -0.35833    
 -89.00 -44.00    -0.41018    
 -89.00 -43.00    -0.42487    
 -89.00 -42.00    -0.40356    
 -89.00 -41.00    -0.34779    
 -89.00 -40.00    -0.25983    
 -89.00 -39.00    -0.14461    
 -89.00 -38.00    -0.12359E-01
 -89.00 -37.00     0.12001    
 -89.00 -36.00     0.22970    
 -89.00 -35.00     0.29186    
 -89.00 -34.00     0.28569    
 -89.00 -33.00     0.20124    
 -89.00 -32.00     0.44423E-01
 -89.00 -31.00    -0.16173    
 -89.00 -30.00    -0.38085    
 -89.00 -29.00    -0.57132    
 -89.00 -28.00    -0.69696    
 -89.00 -27.00    -0.73689    
 -89.00 -26.00    -0.69177    
 -89.00 -25.00    -0.58397    
 -89.00 -24.00    -0.45143    
 -89.00 -23.00    -0.33668    
 -89.00 -22.00    -0.27422    
 -89.00 -21.00    -0.28013    
 -89.00 -20.00    -0.34709    
 -89.00 -19.00    -0.44635    
 -89.00 -18.00    -0.53647    
 -89.00 -17.00    -0.57581    
 -89.00 -16.00    -0.53540    
 -89.00 -15.00    -0.40792    
 -89.00 -14.00    -0.21038    
 -89.00 -13.00     0.20449E-01
 -89.00 -12.00     0.23836    
 -89.00 -11.00     0.40056    
 -89.00 -10.00     0.47929    
 -89.00  -9.00     0.46875    
 -89.00  -8.00     0.38559    
 -89.00  -7.00     0.26314    
 -89.00  -6.00     0.14134    
 -89.00  -5.00     0.55640E-01
 -89.00  -4.00     0.28122E-01
 -89.00  -3.00     0.63179E-01
 -89.00  -2.00     0.14854    
 -89.00  -1.00     0.26080    
 -89.00   0.00     0.37323    
 -89.00   1.00     0.46337    
 -89.00   2.00     0.51818    
 -89.00   3.00     0.53553    
 -89.00   4.00     0.52231    
 -89.00   5.00     0.49028    
 -89.00   6.00     0.45139    
 -89.00   7.00     0.41429    
 -89.00   8.00     0.38284    
 -89.00   9.00     0.35666    
 -89.00  10.00     0.33320    
 -89.00  11.00     0.30987    
 -89.00  12.00     0.28566    
 -89.00  13.00     0.26138    
 -89.00  14.00     0.23894    
 -89.00  15.00     0.22019    
 -89.00  16.00     0.20600    
 -89.00  17.00     0.19637    
 -89.00  18.00     0.19130    
 -89.00  19.00     0.19212    
 -89.00  20.00     0.20245    
 -89.00  21.00     0.22795    
 -89.00  22.00     0.27470    
 -89.00  23.00     0.34641    
 -89.00  24.00     0.44158    
 -89.00  25.00     0.55157    
 -89.00  26.00     0.66082    
 -89.00  27.00     0.74944    
 -89.00  28.00     0.79781    
 -89.00  29.00     0.79186    
 -89.00  30.00     0.72748    
 -89.00  31.00     0.61251    
 -89.00  32.00     0.46551    
 -89.00  33.00     0.31149    
 -89.00  34.00     0.17589    
 -89.00  35.00     0.78354E-01
 -89.00  36.00     0.28417E-01
 -89.00  37.00     0.24120E-01
 -89.00  38.00     0.53932E-01
 -89.00  39.00     0.10115    
 -89.00  40.00     0.14917    
 -89.00  41.00     0.18589    
 -89.00  42.00     0.20576    
 -89.00  43.00     0.20926    
 -89.00  44.00     0.19994    
 -89.00  45.00     0.18080    
 -89.00  46.00     0.15138    
 -89.00  47.00     0.10712    
 -89.00  48.00     0.40959E-01
 -89.00  49.00    -0.52804E-01
 -89.00  50.00    -0.17419    
 -89.00  51.00    -0.31440    
 -89.00  52.00    -0.45547    
 -89.00  53.00    -0.57319    
 -89.00  54.00    -0.64250    
 -89.00  55.00    -0.64428    
 -89.00  56.00    -0.57124    
 -89.00  57.00    -0.43078    
 -89.00  58.00    -0.24416    
 -89.00  59.00    -0.41985E-01
 -89.00  60.00     0.14341    
 -89.00  61.00     0.28486    
 -89.00  62.00     0.36700    
 -89.00  63.00     0.38844    
 -89.00  64.00     0.36052    
 -89.00  65.00     0.30254    
 -89.00  66.00     0.23595    
 -89.00  67.00     0.17777    
 -89.00  68.00     0.13707    
 -89.00  69.00     0.11398    
 -89.00  70.00     0.10113    
 -89.00  71.00     0.88985E-01
 -89.00  72.00     0.67751E-01
 -89.00  73.00     0.32916E-01
 -89.00  74.00    -0.14128E-01
 -89.00  75.00    -0.66863E-01
 -89.00  76.00    -0.11678    
 -89.00  77.00    -0.15512    
 -89.00  78.00    -0.17647    
 -89.00  79.00    -0.18040    
 -89.00  80.00    -0.16947    
 -89.00  81.00    -0.14894    
 -89.00  82.00    -0.12305    
 -89.00  83.00    -0.95555E-01
 -89.00  84.00    -0.67285E-01
 -89.00  85.00    -0.35740E-01
 -89.00  86.00     0.41268E-02
 -89.00  87.00     0.54068E-01
 -89.00  88.00     0.11666    
 -89.00  89.00     0.18906    
 -88.00 -89.00    -0.12420E-01
 -88.00 -88.00    -0.13021E-01
 -88.00 -87.00     0.48041E-01
 -88.00 -86.00     0.14742    
 -88.00 -85.00     0.25170    
 -88.00 -84.00     0.32261    
 -88.00 -83.00     0.33365    
 -88.00 -82.00     0.27199    
 -88.00 -81.00     0.15187    
 -88.00 -80.00     0.10455E-02
 -88.00 -79.00    -0.14199    
 -88.00 -78.00    -0.24353    
 -88.00 -77.00    -0.27966    
 -88.00 -76.00    -0.24645    
 -88.00 -75.00    -0.15661    
 -88.00 -74.00    -0.34997E-01
 -88.00 -73.00     0.89788E-01
 -88.00 -72.00     0.19447    
 -88.00 -71.00     0.26743    
 -88.00 -70.00     0.30899    
 -88.00 -69.00     0.33019    
 -88.00 -68.00     0.34548    
 -88.00 -67.00     0.36667    
 -88.00 -66.00     0.39796    
 -88.00 -65.00     0.43504    
 -88.00 -64.00     0.46746    
 -88.00 -63.00     0.48429    
 -88.00 -62.00     0.47822    
 -88.00 -61.00     0.45037    
 -88.00 -60.00     0.41019    
 -88.00 -59.00     0.37205    
 -88.00 -58.00     0.35048    
 -88.00 -57.00     0.35438    
 -88.00 -56.00     0.38319    
 -88.00 -55.00     0.42653    
 -88.00 -54.00     0.46685    
 -88.00 -53.00     0.48522    
 -88.00 -52.00     0.46662    
 -88.00 -51.00     0.40492    
 -88.00 -50.00     0.30436    
 -88.00 -49.00     0.17767    
 -88.00 -48.00     0.42517E-01
 -88.00 -47.00    -0.83791E-01
 -88.00 -46.00    -0.18779    
 -88.00 -45.00    -0.26183    
 -88.00 -44.00    -0.30337    
 -88.00 -43.00    -0.31293    
 -88.00 -42.00    -0.29146    
 -88.00 -41.00    -0.23925    
 -88.00 -40.00    -0.15665    
 -88.00 -39.00    -0.46597E-01
 -88.00 -38.00     0.82206E-01
 -88.00 -37.00     0.21341    
 -88.00 -36.00     0.32373    
 -88.00 -35.00     0.38702    
 -88.00 -34.00     0.38099    
 -88.00 -33.00     0.29463    
 -88.00 -32.00     0.13387    
 -88.00 -31.00    -0.76947E-01
 -88.00 -30.00    -0.29895    
 -88.00 -29.00    -0.48748    
 -88.00 -28.00    -0.60351    
 -88.00 -27.00    -0.62452    
 -88.00 -26.00    -0.55125    
 -88.00 -25.00    -0.40815    
 -88.00 -24.00    -0.23688    
 -88.00 -23.00    -0.84662E-01
 -88.00 -22.00     0.93371E-02
 -88.00 -21.00     0.25346E-01
 -88.00 -20.00    -0.31332E-01
 -88.00 -19.00    -0.13214    
 -88.00 -18.00    -0.23406    
 -88.00 -17.00    -0.29277    
 -88.00 -16.00    -0.27611    
 -88.00 -15.00    -0.17372    
 -88.00 -14.00    -0.16045E-03
 -88.00 -13.00     0.20956    
 -88.00 -12.00     0.41037    
 -88.00 -11.00     0.56018    
 -88.00 -10.00     0.63166    
 -88.00  -9.00     0.61921    
 -88.00  -8.00     0.53934    
 -88.00  -7.00     0.42462    
 -88.00  -6.00     0.31351    
 -88.00  -5.00     0.23929    
 -88.00  -4.00     0.22141    
 -88.00  -3.00     0.26175    
 -88.00  -2.00     0.34627    
 -88.00  -1.00     0.45106    
 -88.00   0.00     0.55048    
 -88.00   1.00     0.62455    
 -88.00   2.00     0.66343    
 -88.00   3.00     0.66808    
 -88.00   4.00     0.64728    
 -88.00   5.00     0.61279    
 -88.00   6.00     0.57439    
 -88.00   7.00     0.53676    
 -88.00   8.00     0.49890    
 -88.00   9.00     0.45600    
 -88.00  10.00     0.40273    
 -88.00  11.00     0.33639    
 -88.00  12.00     0.25876    
 -88.00  13.00     0.17600    
 -88.00  14.00     0.96888E-01
 -88.00  15.00     0.30239E-01
 -88.00  16.00    -0.17373E-01
 -88.00  17.00    -0.42635E-01
 -88.00  18.00    -0.45065E-01
 -88.00  19.00    -0.25500E-01
 -88.00  20.00     0.15556E-01
 -88.00  21.00     0.78770E-01
 -88.00  22.00     0.16538    
 -88.00  23.00     0.27526    
 -88.00  24.00     0.40440    
 -88.00  25.00     0.54296    
 -88.00  26.00     0.67512    
 -88.00  27.00     0.78113    
 -88.00  28.00     0.84148    
 -88.00  29.00     0.84202    
 -88.00  30.00     0.77835    
 -88.00  31.00     0.65813    
 -88.00  32.00     0.50019    
 -88.00  33.00     0.33054    
 -88.00  34.00     0.17638    
 -88.00  35.00     0.59744E-01
 -88.00  36.00    -0.72705E-02
 -88.00  37.00    -0.24326E-01
 -88.00  38.00    -0.13918E-02
 -88.00  39.00     0.45381E-01
 -88.00  40.00     0.98899E-01
 -88.00  41.00     0.14573    
 -88.00  42.00     0.17848    
 -88.00  43.00     0.19572    
 -88.00  44.00     0.19934    
 -88.00  45.00     0.19110    
 -88.00  46.00     0.16981    
 -88.00  47.00     0.13064    
 -88.00  48.00     0.66474E-01
 -88.00  49.00    -0.28207E-01
 -88.00  50.00    -0.15320    
 -88.00  51.00    -0.29929    
 -88.00  52.00    -0.44799    
 -88.00  53.00    -0.57434    
 -88.00  54.00    -0.65239    
 -88.00  55.00    -0.66199    
 -88.00  56.00    -0.59500    
 -88.00  57.00    -0.45824    
 -88.00  58.00    -0.27286    
 -88.00  59.00    -0.69847E-01
 -88.00  60.00     0.11747    
 -88.00  61.00     0.26086    
 -88.00  62.00     0.34383    
 -88.00  63.00     0.36415    
 -88.00  64.00     0.33282    
 -88.00  65.00     0.26935    
 -88.00  66.00     0.19595    
 -88.00  67.00     0.13090    
 -88.00  68.00     0.84356E-01
 -88.00  69.00     0.57576E-01
 -88.00  70.00     0.43890E-01
 -88.00  71.00     0.33944E-01
 -88.00  72.00     0.17751E-01
 -88.00  73.00    -0.99136E-02
 -88.00  74.00    -0.48496E-01
 -88.00  75.00    -0.92522E-01
 -88.00  76.00    -0.13439    
 -88.00  77.00    -0.16609    
 -88.00  78.00    -0.18260    
 -88.00  79.00    -0.18364    
 -88.00  80.00    -0.17159    
 -88.00  81.00    -0.15120    
 -88.00  82.00    -0.12623    
 -88.00  83.00    -0.99797E-01
 -88.00  84.00    -0.72082E-01
 -88.00  85.00    -0.40206E-01
 -88.00  86.00     0.61236E-03
 -88.00  87.00     0.52038E-01
 -88.00  88.00     0.11595    
 -88.00  89.00     0.18923    
 -87.00 -89.00    -0.13550E-01
 -87.00 -88.00    -0.14808E-01
 -87.00 -87.00     0.46095E-01
 -87.00 -86.00     0.14578    
 -87.00 -85.00     0.25046    
 -87.00 -84.00     0.32149    
 -87.00 -83.00     0.33227    
 -87.00 -82.00     0.27016    
 -87.00 -81.00     0.14930    
 -87.00 -80.00    -0.24277E-02
 -87.00 -79.00    -0.14625    
 -87.00 -78.00    -0.24853    
 -87.00 -77.00    -0.28559    
 -87.00 -76.00    -0.25371    
 -87.00 -75.00    -0.16584    
 -87.00 -74.00    -0.46828E-01
 -87.00 -73.00     0.75042E-01
 -87.00 -72.00     0.17701    
 -87.00 -71.00     0.24806    
 -87.00 -70.00     0.28926    
 -87.00 -69.00     0.31184    
 -87.00 -68.00     0.33017    
 -87.00 -67.00     0.35539    
 -87.00 -66.00     0.39078    
 -87.00 -65.00     0.43112    
 -87.00 -64.00     0.46516    
 -87.00 -63.00     0.48137    
 -87.00 -62.00     0.47260    
 -87.00 -61.00     0.44054    
 -87.00 -60.00     0.39543    
 -87.00 -59.00     0.35251    
 -87.00 -58.00     0.32698    
 -87.00 -57.00     0.32814    
 -87.00 -56.00     0.35554    
 -87.00 -55.00     0.39890    
 -87.00 -54.00     0.44086    
 -87.00 -53.00     0.46288    
 -87.00 -52.00     0.45069    
 -87.00 -51.00     0.39896    
 -87.00 -50.00     0.31239    
 -87.00 -49.00     0.20372    
 -87.00 -48.00     0.89670E-01
 -87.00 -47.00    -0.14223E-01
 -87.00 -46.00    -0.96942E-01
 -87.00 -45.00    -0.15351    
 -87.00 -44.00    -0.18366    
 -87.00 -43.00    -0.18918    
 -87.00 -42.00    -0.17104    
 -87.00 -41.00    -0.12817    
 -87.00 -40.00    -0.58625E-01
 -87.00 -39.00     0.37343E-01
 -87.00 -38.00     0.15348    
 -87.00 -37.00     0.27507    
 -87.00 -36.00     0.37936    
 -87.00 -35.00     0.43983    
 -87.00 -34.00     0.43323    
 -87.00 -33.00     0.34769    
 -87.00 -32.00     0.18883    
 -87.00 -31.00    -0.18375E-01
 -87.00 -30.00    -0.23363    
 -87.00 -29.00    -0.41043    
 -87.00 -28.00    -0.50822    
 -87.00 -27.00    -0.50386    
 -87.00 -26.00    -0.39893    
 -87.00 -25.00    -0.22025    
 -87.00 -24.00    -0.13024E-01
 -87.00 -23.00     0.17150    
 -87.00 -22.00     0.29049    
 -87.00 -21.00     0.32168    
 -87.00 -20.00     0.26950    
 -87.00 -19.00     0.16333    
 -87.00 -18.00     0.48327E-01
 -87.00 -17.00    -0.28352E-01
 -87.00 -16.00    -0.31700E-01
 -87.00 -15.00     0.50872E-01
 -87.00 -14.00     0.20623    
 -87.00 -13.00     0.39999    
 -87.00 -12.00     0.58726    
 -87.00 -11.00     0.72603    
 -87.00 -10.00     0.78929    
 -87.00  -9.00     0.77206    
 -87.00  -8.00     0.69153    
 -87.00  -7.00     0.58069    
 -87.00  -6.00     0.47774    
 -87.00  -5.00     0.41479    
 -87.00  -4.00     0.40928    
 -87.00  -3.00     0.46066    
 -87.00  -2.00     0.55262    
 -87.00  -1.00     0.65980    
 -87.00   0.00     0.75638    
 -87.00   1.00     0.82354    
 -87.00   2.00     0.85357    
 -87.00   3.00     0.84977    
 -87.00   4.00     0.82263    
 -87.00   5.00     0.78421    
 -87.00   6.00     0.74286    
 -87.00   7.00     0.70031    
 -87.00   8.00     0.65177    
 -87.00   9.00     0.58897    
 -87.00  10.00     0.50449    
 -87.00  11.00     0.39583    
 -87.00  12.00     0.26753    
 -87.00  13.00     0.13074    
 -87.00  14.00     0.49018E-03
 -87.00  15.00    -0.10821    
 -87.00  16.00    -0.18388    
 -87.00  17.00    -0.22065    
 -87.00  18.00    -0.21816    
 -87.00  19.00    -0.17985    
 -87.00  20.00    -0.11056    
 -87.00  21.00    -0.14582E-01
 -87.00  22.00     0.10477    
 -87.00  23.00     0.24402    
 -87.00  24.00     0.39735    
 -87.00  25.00     0.55451    
 -87.00  26.00     0.70021    
 -87.00  27.00     0.81559    
 -87.00  28.00     0.88181    
 -87.00  29.00     0.88492    
 -87.00  30.00     0.82029    
 -87.00  31.00     0.69518    
 -87.00  32.00     0.52824    
 -87.00  33.00     0.34590    
 -87.00  34.00     0.17650    
 -87.00  35.00     0.43857E-01
 -87.00  36.00    -0.37825E-01
 -87.00  37.00    -0.66237E-01
 -87.00  38.00    -0.49922E-01
 -87.00  39.00    -0.44368E-02
 -87.00  40.00     0.52839E-01
 -87.00  41.00     0.10746    
 -87.00  42.00     0.15061    
 -87.00  43.00     0.17939    
 -87.00  44.00     0.19442    
 -87.00  45.00     0.19656    
 -87.00  46.00     0.18411    
 -87.00  47.00     0.15197    
 -87.00  48.00     0.92809E-01
 -87.00  49.00     0.94257E-03
 -87.00  50.00    -0.12366    
 -87.00  51.00    -0.27196    
 -87.00  52.00    -0.42541    
 -87.00  53.00    -0.55873    
 -87.00  54.00    -0.64526    
 -87.00  55.00    -0.66386    
 -87.00  56.00    -0.60527    
 -87.00  57.00    -0.47539    
 -87.00  58.00    -0.29481    
 -87.00  59.00    -0.94442E-01
 -87.00  60.00     0.91741E-01
 -87.00  61.00     0.23467    
 -87.00  62.00     0.31682    
 -87.00  63.00     0.33500    
 -87.00  64.00     0.29977    
 -87.00  65.00     0.23070    
 -87.00  66.00     0.15060    
 -87.00  67.00     0.78901E-01
 -87.00  68.00     0.26810E-01
 -87.00  69.00    -0.32790E-02
 -87.00  70.00    -0.17303E-01
 -87.00  71.00    -0.24488E-01
 -87.00  72.00    -0.34960E-01
 -87.00  73.00    -0.54744E-01
 -87.00  74.00    -0.84192E-01
 -87.00  75.00    -0.11895    
 -87.00  76.00    -0.15232    
 -87.00  77.00    -0.17710    
 -87.00  78.00    -0.18866    
 -87.00  79.00    -0.18678    
 -87.00  80.00    -0.17365    
 -87.00  81.00    -0.15344    
 -87.00  82.00    -0.12941    
 -87.00  83.00    -0.10406    
 -87.00  84.00    -0.76878E-01
 -87.00  85.00    -0.44628E-01
 -87.00  86.00    -0.28504E-02
 -87.00  87.00     0.50073E-01
 -87.00  88.00     0.11528    
 -87.00  89.00     0.18942    
 -86.00 -89.00    -0.14665E-01
 -86.00 -88.00    -0.16596E-01
 -86.00 -87.00     0.44110E-01
 -86.00 -86.00     0.14410    
 -86.00 -85.00     0.24919    
 -86.00 -84.00     0.32043    
 -86.00 -83.00     0.33111    
 -86.00 -82.00     0.26894    
 -86.00 -81.00     0.14781    
 -86.00 -80.00    -0.42585E-02
 -86.00 -79.00    -0.14829    
 -86.00 -78.00    -0.25072    
 -86.00 -77.00    -0.28820    
 -86.00 -76.00    -0.25726    
 -86.00 -75.00    -0.17108    
 -86.00 -74.00    -0.54606E-01
 -86.00 -73.00     0.64175E-01
 -86.00 -72.00     0.16301    
 -86.00 -71.00     0.23145    
 -86.00 -70.00     0.27134    
 -86.00 -69.00     0.29416    
 -86.00 -68.00     0.31426    
 -86.00 -67.00     0.34222    
 -86.00 -66.00     0.38045    
 -86.00 -65.00     0.42284    
 -86.00 -64.00     0.45749    
 -86.00 -63.00     0.47215    
 -86.00 -62.00     0.45984    
 -86.00 -61.00     0.42272    
 -86.00 -60.00     0.37173    
 -86.00 -59.00     0.32290    
 -86.00 -58.00     0.29215    
 -86.00 -57.00     0.28918    
 -86.00 -56.00     0.31378    
 -86.00 -55.00     0.35594    
 -86.00 -54.00     0.39870    
 -86.00 -53.00     0.42409    
 -86.00 -52.00     0.41877    
 -86.00 -51.00     0.37828    
 -86.00 -50.00     0.30774    
 -86.00 -49.00     0.21978    
 -86.00 -48.00     0.12990    
 -86.00 -47.00     0.51500E-01
 -86.00 -46.00    -0.72910E-02
 -86.00 -45.00    -0.44629E-01
 -86.00 -44.00    -0.62938E-01
 -86.00 -43.00    -0.65590E-01
 -86.00 -42.00    -0.53727E-01
 -86.00 -41.00    -0.24873E-01
 -86.00 -40.00     0.25531E-01
 -86.00 -39.00     0.10047    
 -86.00 -38.00     0.19687    
 -86.00 -37.00     0.30247    
 -86.00 -36.00     0.39591    
 -86.00 -35.00     0.45091    
 -86.00 -34.00     0.44371    
 -86.00 -33.00     0.36159    
 -86.00 -32.00     0.20953    
 -86.00 -31.00     0.12383E-01
 -86.00 -30.00    -0.18915    
 -86.00 -29.00    -0.34792    
 -86.00 -28.00    -0.42294    
 -86.00 -27.00    -0.39142    
 -86.00 -26.00    -0.25634    
 -86.00 -25.00    -0.46962E-01
 -86.00 -24.00     0.18835    
 -86.00 -23.00     0.39520    
 -86.00 -22.00     0.52829    
 -86.00 -21.00     0.56421    
 -86.00 -20.00     0.50783    
 -86.00 -19.00     0.39042    
 -86.00 -18.00     0.25990    
 -86.00 -17.00     0.16639    
 -86.00 -16.00     0.14727    
 -86.00 -15.00     0.21650    
 -86.00 -14.00     0.36112    
 -86.00 -13.00     0.54611    
 -86.00 -12.00     0.72556    
 -86.00 -11.00     0.85680    
 -86.00 -10.00     0.91289    
 -86.00  -9.00     0.88978    
 -86.00  -8.00     0.80621    
 -86.00  -7.00     0.69676    
 -86.00  -6.00     0.60065    
 -86.00  -5.00     0.54992    
 -86.00  -4.00     0.56067    
 -86.00  -3.00     0.62997    
 -86.00  -2.00     0.73866    
 -86.00  -1.00     0.85883    
 -86.00   0.00     0.96305    
 -86.00   1.00      1.0322    
 -86.00   2.00      1.0595    
 -86.00   3.00      1.0501    
 -86.00   4.00      1.0161    
 -86.00   5.00     0.97063    
 -86.00   6.00     0.92197    
 -86.00   7.00     0.87041    
 -86.00   8.00     0.80899    
 -86.00   9.00     0.72718    
 -86.00  10.00     0.61620    
 -86.00  11.00     0.47377    
 -86.00  12.00     0.30653    
 -86.00  13.00     0.12941    
 -86.00  14.00    -0.37885E-01
 -86.00  15.00    -0.17574    
 -86.00  16.00    -0.26928    
 -86.00  17.00    -0.31114    
 -86.00  18.00    -0.30173    
 -86.00  19.00    -0.24724    
 -86.00  20.00    -0.15644    
 -86.00  21.00    -0.37865E-01
 -86.00  22.00     0.10164    
 -86.00  23.00     0.25637    
 -86.00  24.00     0.41980    
 -86.00  25.00     0.58231    
 -86.00  26.00     0.72997    
 -86.00  27.00     0.84541    
 -86.00  28.00     0.91086    
 -86.00  29.00     0.91267    
 -86.00  30.00     0.84588    
 -86.00  31.00     0.71702    
 -86.00  32.00     0.54408    
 -86.00  33.00     0.35329    
 -86.00  34.00     0.17349    
 -86.00  35.00     0.29601E-01
 -86.00  36.00    -0.62661E-01
 -86.00  37.00    -0.99496E-01
 -86.00  38.00    -0.88338E-01
 -86.00  39.00    -0.44265E-01
 -86.00  40.00     0.15153E-01
 -86.00  41.00     0.74750E-01
 -86.00  42.00     0.12478    
 -86.00  43.00     0.16140    
 -86.00  44.00     0.18462    
 -86.00  45.00     0.19495    
 -86.00  46.00     0.19057    
 -86.00  47.00     0.16629    
 -86.00  48.00     0.11455    
 -86.00  49.00     0.29172E-01
 -86.00  50.00    -0.90625E-01
 -86.00  51.00    -0.23659    
 -86.00  52.00    -0.39083    
 -86.00  53.00    -0.52821    
 -86.00  54.00    -0.62176    
 -86.00  55.00    -0.64950    
 -86.00  56.00    -0.60089    
 -86.00  57.00    -0.48058    
 -86.00  58.00    -0.30816    
 -86.00  59.00    -0.11397    
 -86.00  60.00     0.67787E-01
 -86.00  61.00     0.20754    
 -86.00  62.00     0.28685    
 -86.00  63.00     0.30163    
 -86.00  64.00     0.26186    
 -86.00  65.00     0.18704    
 -86.00  66.00     0.10042    
 -86.00  67.00     0.22436E-01
 -86.00  68.00    -0.34707E-01
 -86.00  69.00    -0.67563E-01
 -86.00  70.00    -0.81327E-01
 -86.00  71.00    -0.85156E-01
 -86.00  72.00    -0.89291E-01
 -86.00  73.00    -0.10061    
 -86.00  74.00    -0.12042    
 -86.00  75.00    -0.14553    
 -86.00  76.00    -0.17012    
 -86.00  77.00    -0.18785    
 -86.00  78.00    -0.19448    
 -86.00  79.00    -0.18975    
 -86.00  80.00    -0.17561    
 -86.00  81.00    -0.15565    
 -86.00  82.00    -0.13259    
 -86.00  83.00    -0.10832    
 -86.00  84.00    -0.81656E-01
 -86.00  85.00    -0.48998E-01
 -86.00  86.00    -0.62545E-02
 -86.00  87.00     0.48173E-01
 -86.00  88.00     0.11466    
 -86.00  89.00     0.18963    
 -85.00 -89.00    -0.15766E-01
 -85.00 -88.00    -0.18383E-01
 -85.00 -87.00     0.42089E-01
 -85.00 -86.00     0.14238    
 -85.00 -85.00     0.24788    
 -85.00 -84.00     0.31945    
 -85.00 -83.00     0.33021    
 -85.00 -82.00     0.26836    
 -85.00 -81.00     0.14744    
 -85.00 -80.00    -0.44106E-02
 -85.00 -79.00    -0.14806    
 -85.00 -78.00    -0.24999    
 -85.00 -77.00    -0.28736    
 -85.00 -76.00    -0.25688    
 -85.00 -75.00    -0.17202    
 -85.00 -74.00    -0.57950E-01
 -85.00 -73.00     0.57632E-01
 -85.00 -72.00     0.15295    
 -85.00 -71.00     0.21806    
 -85.00 -70.00     0.25566    
 -85.00 -69.00     0.27752    
 -85.00 -68.00     0.29806    
 -85.00 -67.00     0.32742    
 -85.00 -66.00     0.36734    
 -85.00 -65.00     0.41082    
 -85.00 -64.00     0.44538    
 -85.00 -63.00     0.45808    
 -85.00 -62.00     0.44202    
 -85.00 -61.00     0.39972    
 -85.00 -60.00     0.34260    
 -85.00 -59.00     0.28741    
 -85.00 -58.00     0.25064    
 -85.00 -57.00     0.24236    
 -85.00 -56.00     0.26272    
 -85.00 -55.00     0.30206    
 -85.00 -54.00     0.34404    
 -85.00 -53.00     0.37145    
 -85.00 -52.00     0.37207    
 -85.00 -51.00     0.34239    
 -85.00 -50.00     0.28807    
 -85.00 -49.00     0.22151    
 -85.00 -48.00     0.15687    
 -85.00 -47.00     0.10520    
 -85.00 -46.00     0.71470E-01
 -85.00 -45.00     0.54094E-01
 -85.00 -44.00     0.47673E-01
 -85.00 -43.00     0.47039E-01
 -85.00 -42.00     0.50776E-01
 -85.00 -41.00     0.62784E-01
 -85.00 -40.00     0.90438E-01
 -85.00 -39.00     0.14031    
 -85.00 -38.00     0.21297    
 -85.00 -37.00     0.29916    
 -85.00 -36.00     0.37941    
 -85.00 -35.00     0.42810    
 -85.00 -34.00     0.42109    
 -85.00 -33.00     0.34471    
 -85.00 -32.00     0.20288    
 -85.00 -31.00     0.19578E-01
 -85.00 -30.00    -0.16496    
 -85.00 -29.00    -0.30389    
 -85.00 -28.00    -0.35667    
 -85.00 -27.00    -0.30145    
 -85.00 -26.00    -0.14283    
 -85.00 -25.00     0.87667E-01
 -85.00 -24.00     0.33921    
 -85.00 -23.00     0.55524    
 -85.00 -22.00     0.68928    
 -85.00 -21.00     0.71809    
 -85.00 -20.00     0.64815    
 -85.00 -19.00     0.51347    
 -85.00 -18.00     0.36521    
 -85.00 -17.00     0.25637    
 -85.00 -16.00     0.22618    
 -85.00 -15.00     0.28896    
 -85.00 -14.00     0.43077    
 -85.00 -13.00     0.61463    
 -85.00 -12.00     0.79257    
 -85.00 -11.00     0.92050    
 -85.00 -10.00     0.97128    
 -85.00  -9.00     0.94206    
 -85.00  -8.00     0.85388    
 -85.00  -7.00     0.74400    
 -85.00  -6.00     0.65382    
 -85.00  -5.00     0.61632    
 -85.00  -4.00     0.64688    
 -85.00  -3.00     0.74022    
 -85.00  -2.00     0.87381    
 -85.00  -1.00      1.0161    
 -85.00   0.00      1.1368    
 -85.00   1.00      1.2151    
 -85.00   2.00      1.2442    
 -85.00   3.00      1.2303    
 -85.00   4.00      1.1877    
 -85.00   5.00      1.1317    
 -85.00   6.00      1.0718    
 -85.00   7.00      1.0088    
 -85.00   8.00     0.93534    
 -85.00   9.00     0.83988    
 -85.00  10.00     0.71284    
 -85.00  11.00     0.55183    
 -85.00  12.00     0.36446    
 -85.00  13.00     0.16756    
 -85.00  14.00    -0.16630E-01
 -85.00  15.00    -0.16612    
 -85.00  16.00    -0.26449    
 -85.00  17.00    -0.30416    
 -85.00  18.00    -0.28682    
 -85.00  19.00    -0.22114    
 -85.00  20.00    -0.11897    
 -85.00  21.00     0.82851E-02
 -85.00  22.00     0.15178    
 -85.00  23.00     0.30515    
 -85.00  24.00     0.46255    
 -85.00  25.00     0.61606    
 -85.00  26.00     0.75390    
 -85.00  27.00     0.86060    
 -85.00  28.00     0.91958    
 -85.00  29.00     0.91743    
 -85.00  30.00     0.84857    
 -85.00  31.00     0.71842    
 -85.00  32.00     0.54380    
 -85.00  33.00     0.35016    
 -85.00  34.00     0.16616    
 -85.00  35.00     0.17179E-01
 -85.00  36.00    -0.80243E-01
 -85.00  37.00    -0.12139    
 -85.00  38.00    -0.11304    
 -85.00  39.00    -0.70022E-01
 -85.00  40.00    -0.10087E-01
 -85.00  41.00     0.51152E-01
 -85.00  42.00     0.10353    
 -85.00  43.00     0.14297    
 -85.00  44.00     0.16959    
 -85.00  45.00     0.18433    
 -85.00  46.00     0.18583    
 -85.00  47.00     0.16914    
 -85.00  48.00     0.12652    
 -85.00  49.00     0.51019E-01
 -85.00  50.00    -0.59382E-01
 -85.00  51.00    -0.19795    
 -85.00  52.00    -0.34815    
 -85.00  53.00    -0.48570    
 -85.00  54.00    -0.58378    
 -85.00  55.00    -0.61977    
 -85.00  56.00    -0.58187    
 -85.00  57.00    -0.47319    
 -85.00  58.00    -0.31189    
 -85.00  59.00    -0.12726    
 -85.00  60.00     0.46787E-01
