 -59.00  87.00     0.55934    
 -59.00  88.00    -0.22311E-01
 -59.00  89.00    -0.57874    
 -58.00 -89.00      1.8816    
 -58.00 -88.00      1.7543    
 -58.00 -87.00      1.6521    
 -58.00 -86.00      1.5820    
 -58.00 -85.00      1.5397    
 -58.00 -84.00      1.5158    
 -58.00 -83.00      1.4911    
 -58.00 -82.00      1.4601    
 -58.00 -81.00      1.4045    
 -58.00 -80.00      1.3238    
 -58.00 -79.00      1.2290    
 -58.00 -78.00      1.1335    
 -58.00 -77.00      1.0518    
 -58.00 -76.00     0.99612    
 -58.00 -75.00     0.96259    
 -58.00 -74.00     0.94214    
 -58.00 -73.00     0.91634    
 -58.00 -72.00     0.86113    
 -58.00 -71.00     0.76051    
 -58.00 -70.00     0.60606    
 -58.00 -69.00     0.40401    
 -58.00 -68.00     0.17242    
 -58.00 -67.00    -0.62821E-01
 -58.00 -66.00    -0.27453    
 -58.00 -65.00    -0.44116    
 -58.00 -64.00    -0.54988    
 -58.00 -63.00    -0.59954    
 -58.00 -62.00    -0.59787    
 -58.00 -61.00    -0.55627    
 -58.00 -60.00    -0.48822    
 -58.00 -59.00    -0.40308    
 -58.00 -58.00    -0.30631    
 -58.00 -57.00    -0.20070    
 -58.00 -56.00    -0.88016E-01
 -58.00 -55.00     0.27399E-01
 -58.00 -54.00     0.13964    
 -58.00 -53.00     0.24059    
 -58.00 -52.00     0.32542    
 -58.00 -51.00     0.39441    
 -58.00 -50.00     0.45566    
 -58.00 -49.00     0.52343    
 -58.00 -48.00     0.61622    
 -58.00 -47.00     0.74822    
 -58.00 -46.00     0.92328    
 -58.00 -45.00      1.1305    
 -58.00 -44.00      1.3426    
 -58.00 -43.00      1.5209    
 -58.00 -42.00      1.6237    
 -58.00 -41.00      1.6178    
 -58.00 -40.00      1.4880    
 -58.00 -39.00      1.2431    
 -58.00 -38.00     0.91526    
 -58.00 -37.00     0.55277    
 -58.00 -36.00     0.20873    
 -58.00 -35.00    -0.71937E-01
 -58.00 -34.00    -0.26294    
 -58.00 -33.00    -0.36161    
 -58.00 -32.00    -0.38719    
 -58.00 -31.00    -0.37325    
 -58.00 -30.00    -0.35673    
 -58.00 -29.00    -0.36742    
 -58.00 -28.00    -0.42090    
 -58.00 -27.00    -0.51683    
 -58.00 -26.00    -0.64261    
 -58.00 -25.00    -0.78027    
 -58.00 -24.00    -0.91374    
 -58.00 -23.00     -1.0334    
 -58.00 -22.00     -1.1361    
 -58.00 -21.00     -1.2213    
 -58.00 -20.00     -1.2845    
 -58.00 -19.00     -1.3117    
 -58.00 -18.00     -1.2775    
 -58.00 -17.00     -1.1492    
 -58.00 -16.00    -0.89567    
 -58.00 -15.00    -0.49943    
 -58.00 -14.00     0.32944E-01
 -58.00 -13.00     0.66528    
 -58.00 -12.00      1.3343    
 -58.00 -11.00      1.9607    
 -58.00 -10.00      2.4657    
 -58.00  -9.00      2.7894    
 -58.00  -8.00      2.9055    
 -58.00  -7.00      2.8273    
 -58.00  -6.00      2.6038    
 -58.00  -5.00      2.3064    
 -58.00  -4.00      2.0099    
 -58.00  -3.00      1.7738    
 -58.00  -2.00      1.6289    
 -58.00  -1.00      1.5728    
 -58.00   0.00      1.5757    
 -58.00   1.00      1.5938    
 -58.00   2.00      1.5862    
 -58.00   3.00      1.5289    
 -58.00   4.00      1.4226    
 -58.00   5.00      1.2911    
 -58.00   6.00      1.1724    
 -58.00   7.00      1.1044    
 -58.00   8.00      1.1108    
 -58.00   9.00      1.1925    
 -58.00  10.00      1.3260    
 -58.00  11.00      1.4696    
 -58.00  12.00      1.5763    
 -58.00  13.00      1.6066    
 -58.00  14.00      1.5399    
 -58.00  15.00      1.3787    
 -58.00  16.00      1.1460    
 -58.00  17.00     0.87705    
 -58.00  18.00     0.60791    
 -58.00  19.00     0.36550    
 -58.00  20.00     0.16201    
 -58.00  21.00    -0.48924E-02
 -58.00  22.00    -0.14674    
 -58.00  23.00    -0.27628    
 -58.00  24.00    -0.40008    
 -58.00  25.00    -0.51450    
 -58.00  26.00    -0.60657    
 -58.00  27.00    -0.65919    
 -58.00  28.00    -0.65843    
 -58.00  29.00    -0.60022    
 -58.00  30.00    -0.49346    
 -58.00  31.00    -0.35850    
 -58.00  32.00    -0.22117    
 -58.00  33.00    -0.10460    
 -58.00  34.00    -0.21546E-01
 -58.00  35.00     0.29860E-01
 -58.00  36.00     0.65622E-01
 -58.00  37.00     0.11067    
 -58.00  38.00     0.19086    
 -58.00  39.00     0.32496    
 -58.00  40.00     0.51929    
 -58.00  41.00     0.76670    
 -58.00  42.00      1.0502    
 -58.00  43.00      1.3490    
 -58.00  44.00      1.6452    
 -58.00  45.00      1.9283    
 -58.00  46.00      2.1952    
 -58.00  47.00      2.4473    
 -58.00  48.00      2.6837    
 -58.00  49.00      2.8965    
 -58.00  50.00      3.0673    
 -58.00  51.00      3.1697    
 -58.00  52.00      3.1750    
 -58.00  53.00      3.0619    
 -58.00  54.00      2.8260    
 -58.00  55.00      2.4846    
 -58.00  56.00      2.0765    
 -58.00  57.00      1.6558    
 -58.00  58.00      1.2794    
 -58.00  59.00     0.99694    
 -58.00  60.00     0.83543    
 -58.00  61.00     0.79692    
 -58.00  62.00     0.85920    
 -58.00  63.00     0.98238    
 -58.00  64.00      1.1225    
 -58.00  65.00      1.2420    
 -58.00  66.00      1.3197    
 -58.00  67.00      1.3536    
 -58.00  68.00      1.3587    
 -58.00  69.00      1.3593    
 -58.00  70.00      1.3794    
 -58.00  71.00      1.4378    
 -58.00  72.00      1.5382    
 -58.00  73.00      1.6737    
 -58.00  74.00      1.8295    
 -58.00  75.00      1.9887    
 -58.00  76.00      2.1367    
 -58.00  77.00      2.2639    
 -58.00  78.00      2.3664    
 -58.00  79.00      2.4434    
 -58.00  80.00      2.4847    
 -58.00  81.00      2.4806    
 -58.00  82.00      2.4073    
 -58.00  83.00      2.2434    
 -58.00  84.00      1.9721    
 -58.00  85.00      1.5924    
 -58.00  86.00      1.1074    
 -58.00  87.00     0.54968    
 -58.00  88.00    -0.31494E-01
 -58.00  89.00    -0.58430    
 -57.00 -89.00      1.8864    
 -57.00 -88.00      1.7646    
 -57.00 -87.00      1.6679    
 -57.00 -86.00      1.6023    
 -57.00 -85.00      1.5616    
 -57.00 -84.00      1.5356    
 -57.00 -83.00      1.5063    
 -57.00 -82.00      1.4671    
 -57.00 -81.00      1.4030    
 -57.00 -80.00      1.3158    
 -57.00 -79.00      1.2183    
 -57.00 -78.00      1.1253    
 -57.00 -77.00      1.0505    
 -57.00 -76.00      1.0041    
 -57.00 -75.00     0.97929    
 -57.00 -74.00     0.96373    
 -57.00 -73.00     0.93710    
 -57.00 -72.00     0.87547    
 -57.00 -71.00     0.76498    
 -57.00 -70.00     0.60165    
 -57.00 -69.00     0.39686    
 -57.00 -68.00     0.17305    
 -57.00 -67.00    -0.41590E-01
 -57.00 -66.00    -0.22072    
 -57.00 -65.00    -0.34633    
 -57.00 -64.00    -0.41171    
 -57.00 -63.00    -0.42253    
 -57.00 -62.00    -0.39210    
 -57.00 -61.00    -0.33504    
 -57.00 -60.00    -0.26473    
 -57.00 -59.00    -0.18763    
 -57.00 -58.00    -0.10428    
 -57.00 -57.00    -0.12394E-01
 -57.00 -56.00     0.89718E-01
 -57.00 -55.00     0.19870    
 -57.00 -54.00     0.30663    
 -57.00 -53.00     0.40135    
 -57.00 -52.00     0.47349    
 -57.00 -51.00     0.51990    
 -57.00 -50.00     0.54801    
 -57.00 -49.00     0.57478    
 -57.00 -48.00     0.62408    
 -57.00 -47.00     0.71725    
 -57.00 -46.00     0.86490    
 -57.00 -45.00      1.0604    
 -57.00 -44.00      1.2773    
 -57.00 -43.00      1.4738    
 -57.00 -42.00      1.6025    
 -57.00 -41.00      1.6229    
 -57.00 -40.00      1.5139    
 -57.00 -39.00      1.2812    
 -57.00 -38.00     0.95751    
 -57.00 -37.00     0.59563    
 -57.00 -36.00     0.25540    
 -57.00 -35.00    -0.11299E-01
 -57.00 -34.00    -0.17343    
 -57.00 -33.00    -0.22761    
 -57.00 -32.00    -0.19721    
 -57.00 -31.00    -0.12419    
 -57.00 -30.00    -0.56382E-01
 -57.00 -29.00    -0.34291E-01
 -57.00 -28.00    -0.81163E-01
 -57.00 -27.00    -0.19907    
 -57.00 -26.00    -0.37143    
 -57.00 -25.00    -0.57032    
 -57.00 -24.00    -0.76566    
 -57.00 -23.00    -0.93269    
 -57.00 -22.00     -1.0556    
 -57.00 -21.00     -1.1263    
 -57.00 -20.00     -1.1404    
 -57.00 -19.00     -1.0914    
 -57.00 -18.00    -0.96809    
 -57.00 -17.00    -0.75547    
 -57.00 -16.00    -0.44022    
 -57.00 -15.00    -0.18756E-01
 -57.00 -14.00     0.49512    
 -57.00 -13.00      1.0664    
 -57.00 -12.00      1.6413    
 -57.00 -11.00      2.1560    
 -57.00 -10.00      2.5506    
 -57.00  -9.00      2.7833    
 -57.00  -8.00      2.8410    
 -57.00  -7.00      2.7435    
 -57.00  -6.00      2.5382    
 -57.00  -5.00      2.2877    
 -57.00  -4.00      2.0531    
 -57.00  -3.00      1.8786    
 -57.00  -2.00      1.7815    
 -57.00  -1.00      1.7505    
 -57.00   0.00      1.7525    
 -57.00   1.00      1.7467    
 -57.00   2.00      1.6987    
 -57.00   3.00      1.5933    
 -57.00   4.00      1.4390    
 -57.00   5.00      1.2650    
 -57.00   6.00      1.1107    
 -57.00   7.00      1.0121    
 -57.00   8.00     0.98940    
 -57.00   9.00      1.0397    
 -57.00  10.00      1.1374    
 -57.00  11.00      1.2422    
 -57.00  12.00      1.3107    
 -57.00  13.00      1.3099    
 -57.00  14.00      1.2258    
 -57.00  15.00      1.0660    
 -57.00  16.00     0.85608    
 -57.00  17.00     0.62967    
 -57.00  18.00     0.41794    
 -57.00  19.00     0.24048    
 -57.00  20.00     0.10131    
 -57.00  21.00    -0.92731E-02
 -57.00  22.00    -0.10818    
 -57.00  23.00    -0.21095    
 -57.00  24.00    -0.32448    
 -57.00  25.00    -0.44368    
 -57.00  26.00    -0.55313    
 -57.00  27.00    -0.63292    
 -57.00  28.00    -0.66634    
 -57.00  29.00    -0.64637    
 -57.00  30.00    -0.57861    
 -57.00  31.00    -0.47943    
 -57.00  32.00    -0.37014    
 -57.00  33.00    -0.26928    
 -57.00  34.00    -0.18588    
 -57.00  35.00    -0.11628    
 -57.00  36.00    -0.45435E-01
 -57.00  37.00     0.47562E-01
 -57.00  38.00     0.18197    
 -57.00  39.00     0.36857    
 -57.00  40.00     0.60596    
 -57.00  41.00     0.88122    
 -57.00  42.00      1.1747    
 -57.00  43.00      1.4665    
 -57.00  44.00      1.7429    
 -57.00  45.00      1.9989    
 -57.00  46.00      2.2372    
 -57.00  47.00      2.4633    
 -57.00  48.00      2.6779    
 -57.00  49.00      2.8718    
 -57.00  50.00      3.0236    
 -57.00  51.00      3.1028    
 -57.00  52.00      3.0779    
 -57.00  53.00      2.9267    
 -57.00  54.00      2.6463    
 -57.00  55.00      2.2584    
 -57.00  56.00      1.8070    
 -57.00  57.00      1.3518    
 -57.00  58.00     0.95409    
 -57.00  59.00     0.66516    
 -57.00  60.00     0.51184    
 -57.00  61.00     0.49339    
 -57.00  62.00     0.58377    
 -57.00  63.00     0.73908    
 -57.00  64.00     0.91192    
 -57.00  65.00      1.0627    
 -57.00  66.00      1.1690    
 -57.00  67.00      1.2291    
 -57.00  68.00      1.2580    
 -57.00  69.00      1.2802    
 -57.00  70.00      1.3191    
 -57.00  71.00      1.3932    
 -57.00  72.00      1.5060    
 -57.00  73.00      1.6499    
 -57.00  74.00      1.8108    
 -57.00  75.00      1.9728    
 -57.00  76.00      2.1226    
 -57.00  77.00      2.2522    
 -57.00  78.00      2.3579    
 -57.00  79.00      2.4394    
 -57.00  80.00      2.4854    
 -57.00  81.00      2.4847    
 -57.00  82.00      2.4128    
 -57.00  83.00      2.2472    
 -57.00  84.00      1.9720    
 -57.00  85.00      1.5882    
 -57.00  86.00      1.0987    
 -57.00  87.00     0.53912    
 -57.00  88.00    -0.41177E-01
 -57.00  89.00    -0.59004    
 -56.00 -89.00      1.8913    
 -56.00 -88.00      1.7748    
 -56.00 -87.00      1.6835    
 -56.00 -86.00      1.6221    
 -56.00 -85.00      1.5827    
 -56.00 -84.00      1.5544    
 -56.00 -83.00      1.5206    
 -56.00 -82.00      1.4730    
 -56.00 -81.00      1.4006    
 -56.00 -80.00      1.3072    
 -56.00 -79.00      1.2074    
 -56.00 -78.00      1.1171    
 -56.00 -77.00      1.0491    
 -56.00 -76.00      1.0117    
 -56.00 -75.00     0.99510    
 -56.00 -74.00     0.98367    
 -56.00 -73.00     0.95529    
 -56.00 -72.00     0.88625    
 -56.00 -71.00     0.76481    
 -56.00 -70.00     0.59154    
 -56.00 -69.00     0.38308    
 -56.00 -68.00     0.16624    
 -56.00 -67.00    -0.28419E-01
 -56.00 -66.00    -0.17523    
 -56.00 -65.00    -0.25960    
 -56.00 -64.00    -0.28088    
 -56.00 -63.00    -0.25147    
 -56.00 -62.00    -0.19034    
 -56.00 -61.00    -0.11548    
 -56.00 -60.00    -0.40325E-01
 -56.00 -59.00     0.31413E-01
 -56.00 -58.00     0.10393    
 -56.00 -57.00     0.18460    
 -56.00 -56.00     0.27861    
 -56.00 -55.00     0.38368    
 -56.00 -54.00     0.48989    
 -56.00 -53.00     0.58092    
 -56.00 -52.00     0.64237    
 -56.00 -51.00     0.66694    
 -56.00 -50.00     0.66042    
 -56.00 -49.00     0.64166    
 -56.00 -48.00     0.63919    
 -56.00 -47.00     0.68149    
 -56.00 -46.00     0.78665    
 -56.00 -45.00     0.95375    
 -56.00 -44.00      1.1595    
 -56.00 -43.00      1.3617    
 -56.00 -42.00      1.5091    
 -56.00 -41.00      1.5565    
 -56.00 -40.00      1.4771    
 -56.00 -39.00      1.2730    
 -56.00 -38.00     0.97568    
 -56.00 -37.00     0.63978    
 -56.00 -36.00     0.32880    
 -56.00 -35.00     0.98786E-01
 -56.00 -34.00    -0.16202E-01
 -56.00 -33.00    -0.12432E-01
 -56.00 -32.00     0.83750E-01
 -56.00 -31.00     0.22439    
 -56.00 -30.00     0.35388    
 -56.00 -29.00     0.42406    
 -56.00 -28.00     0.40616    
 -56.00 -27.00     0.29631    
 -56.00 -26.00     0.11373    
 -56.00 -25.00    -0.10698    
 -56.00 -24.00    -0.32655    
 -56.00 -23.00    -0.51070    
 -56.00 -22.00    -0.63627    
 -56.00 -21.00    -0.69216    
 -56.00 -20.00    -0.67603    
 -56.00 -19.00    -0.58901    
 -56.00 -18.00    -0.43120    
 -56.00 -17.00    -0.20030    
 -56.00 -16.00     0.10589    
 -56.00 -15.00     0.48421    
 -56.00 -14.00     0.92041    
 -56.00 -13.00      1.3860    
 -56.00 -12.00      1.8397    
 -56.00 -11.00      2.2341    
 -56.00 -10.00      2.5261    
 -56.00  -9.00      2.6879    
 -56.00  -8.00      2.7149    
 -56.00  -7.00      2.6277    
 -56.00  -6.00      2.4673    
 -56.00  -5.00      2.2838    
 -56.00  -4.00      2.1230    
 -56.00  -3.00      2.0137    
 -56.00  -2.00      1.9609    
 -56.00  -1.00      1.9465    
 -56.00   0.00      1.9368    
 -56.00   1.00      1.8954    
 -56.00   2.00      1.7963    
 -56.00   3.00      1.6335    
 -56.00   4.00      1.4233    
 -56.00   5.00      1.2000    
 -56.00   6.00      1.0044    
 -56.00   7.00     0.87113    
 -56.00   8.00     0.81765    
 -56.00   9.00     0.83852    
 -56.00  10.00     0.90745    
 -56.00  11.00     0.98563    
 -56.00  12.00      1.0337    
 -56.00  13.00      1.0234    
 -56.00  14.00     0.94495    
 -56.00  15.00     0.80854    
 -56.00  16.00     0.63896    
 -56.00  17.00     0.46627    
 -56.00  18.00     0.31563    
 -56.00  19.00     0.19963    
 -56.00  20.00     0.11577    
 -56.00  21.00     0.49482E-01
 -56.00  22.00    -0.18750E-01
 -56.00  23.00    -0.10496    
 -56.00  24.00    -0.21511    
 -56.00  25.00    -0.34264    
 -56.00  26.00    -0.47083    
 -56.00  27.00    -0.57889    
 -56.00  28.00    -0.64932    
 -56.00  29.00    -0.67370    
 -56.00  30.00    -0.65485    
 -56.00  31.00    -0.60450    
 -56.00  32.00    -0.53772    
 -56.00  33.00    -0.46609    
 -56.00  34.00    -0.39256    
 -56.00  35.00    -0.30985    
 -56.00  36.00    -0.20311    
 -56.00  37.00    -0.55848E-01
 -56.00  38.00     0.14305    
 -56.00  39.00     0.39413    
 -56.00  40.00     0.68580    
 -56.00  41.00     0.99723    
 -56.00  42.00      1.3047    
 -56.00  43.00      1.5889    
 -56.00  44.00      1.8405    
 -56.00  45.00      2.0615    
 -56.00  46.00      2.2620    
 -56.00  47.00      2.4533    
 -56.00  48.00      2.6391    
 -56.00  49.00      2.8102    
 -56.00  50.00      2.9422    
 -56.00  51.00      3.0008    
 -56.00  52.00      2.9509    
 -56.00  53.00      2.7691    
 -56.00  54.00      2.4530    
 -56.00  55.00      2.0278    
 -56.00  56.00      1.5423    
 -56.00  57.00      1.0611    
 -56.00  58.00     0.64909    
 -56.00  59.00     0.35917    
 -56.00  60.00     0.21769    
 -56.00  61.00     0.22115    
 -56.00  62.00     0.33985    
 -56.00  63.00     0.52619    
 -56.00  64.00     0.72970    
 -56.00  65.00     0.90926    
 -56.00  66.00      1.0415    
 -56.00  67.00      1.1253    
 -56.00  68.00      1.1755    
 -56.00  69.00      1.2171    
 -56.00  70.00      1.2729    
 -56.00  71.00      1.3610    
 -56.00  72.00      1.4841    
 -56.00  73.00      1.6345    
 -56.00  74.00      1.7987    
 -56.00  75.00      1.9616    
 -56.00  76.00      2.1115    
 -56.00  77.00      2.2419    
 -56.00  78.00      2.3497    
 -56.00  79.00      2.4346    
 -56.00  80.00      2.4845    
 -56.00  81.00      2.4869    
 -56.00  82.00      2.4160    
 -56.00  83.00      2.2489    
 -56.00  84.00      1.9700    
 -56.00  85.00      1.5821    
 -56.00  86.00      1.0886    
 -56.00  87.00     0.52766    
 -56.00  88.00    -0.51358E-01
 -56.00  89.00    -0.59596    
 -55.00 -89.00      1.8961    
 -55.00 -88.00      1.7850    
 -55.00 -87.00      1.6989    
 -55.00 -86.00      1.6414    
 -55.00 -85.00      1.6032    
 -55.00 -84.00      1.5722    
 -55.00 -83.00      1.5340    
 -55.00 -82.00      1.4781    
 -55.00 -81.00      1.3976    
 -55.00 -80.00      1.2982    
 -55.00 -79.00      1.1964    
 -55.00 -78.00      1.1089    
 -55.00 -77.00      1.0478    
 -55.00 -76.00      1.0191    
 -55.00 -75.00      1.0100    
 -55.00 -74.00      1.0020    
 -55.00 -73.00     0.97093    
 -55.00 -72.00     0.89356    
 -55.00 -71.00     0.76014    
 -55.00 -70.00     0.57591    
 -55.00 -69.00     0.36268    
 -55.00 -68.00     0.15166    
 -55.00 -67.00    -0.24178E-01
 -55.00 -66.00    -0.13975    
 -55.00 -65.00    -0.18373    
 -55.00 -64.00    -0.16141    
 -55.00 -63.00    -0.91756E-01
 -55.00 -62.00     0.66936E-03
 -55.00 -61.00     0.94364E-01
 -55.00 -60.00     0.17577    
 -55.00 -59.00     0.24376    
 -55.00 -58.00     0.30713    
 -55.00 -57.00     0.37833    
 -55.00 -56.00     0.46608    
 -55.00 -55.00     0.56936    
 -55.00 -54.00     0.67633    
 -55.00 -53.00     0.76649    
 -55.00 -52.00     0.82007    
 -55.00 -51.00     0.82499    
 -55.00 -50.00     0.78448    
 -55.00 -49.00     0.71842    
 -55.00 -48.00     0.65915    
 -55.00 -47.00     0.64195    
 -55.00 -46.00     0.69275    
 -55.00 -45.00     0.81748    
 -55.00 -44.00     0.99780    
 -55.00 -43.00      1.1931    
 -55.00 -42.00      1.3511    
 -55.00 -41.00      1.4229    
 -55.00 -40.00      1.3773    
 -55.00 -39.00      1.2120    
 -55.00 -38.00     0.95626    
 -55.00 -37.00     0.66372    
 -55.00 -36.00     0.39888    
 -55.00 -35.00     0.21960    
 -55.00 -34.00     0.16136    
 -55.00 -33.00     0.22807    
 -55.00 -32.00     0.39162    
 -55.00 -31.00     0.60051    
 -55.00 -30.00     0.79441    
 -55.00 -29.00     0.92048    
 -55.00 -28.00     0.94642    
 -55.00 -27.00     0.86703    
 -55.00 -26.00     0.70275    
 -55.00 -25.00     0.49151    
 -55.00 -24.00     0.27718    
 -55.00 -23.00     0.98276E-01
 -55.00 -22.00    -0.19484E-01
 -55.00 -21.00    -0.65324E-01
 -55.00 -20.00    -0.40489E-01
 -55.00 -19.00     0.47562E-01
 -55.00 -18.00     0.19098    
 -55.00 -17.00     0.38482    
 -55.00 -16.00     0.62665    
 -55.00 -15.00     0.91297    
 -55.00 -14.00      1.2344    
 -55.00 -13.00      1.5724    
 -55.00 -12.00      1.8992    
 -55.00 -11.00      2.1822    
 -55.00 -10.00      2.3917    
 -55.00  -9.00      2.5089    
 -55.00  -8.00      2.5324    
 -55.00  -7.00      2.4793    
 -55.00  -6.00      2.3807    
 -55.00  -5.00      2.2731    
 -55.00  -4.00      2.1870    
 -55.00  -3.00      2.1376    
 -55.00  -2.00      2.1206    
 -55.00  -1.00      2.1136    
 -55.00   0.00      2.0847    
 -55.00   1.00      2.0035    
 -55.00   2.00      1.8523    
 -55.00   3.00      1.6338    
 -55.00   4.00      1.3711    
 -55.00   5.00      1.1023    
 -55.00   6.00     0.86917    
 -55.00   7.00     0.70525    
 -55.00   8.00     0.62591    
 -55.00   9.00     0.62446    
 -55.00  10.00     0.67494    
 -55.00  11.00     0.74069    
 -55.00  12.00     0.78563    
 -55.00  13.00     0.78472    
 -55.00  14.00     0.73011    
 -55.00  15.00     0.63142    
 -55.00  16.00     0.51029    
 -55.00  17.00     0.39156    
 -55.00  18.00     0.29419    
 -55.00  19.00     0.22512    
 -55.00  20.00     0.17797    
 -55.00  21.00     0.13663    
 -55.00  22.00     0.82273E-01
 -55.00  23.00     0.88237E-03
 -55.00  24.00    -0.11136    
 -55.00  25.00    -0.24671    
 -55.00  26.00    -0.38881    
 -55.00  27.00    -0.51850    
 -55.00  28.00    -0.62015    
 -55.00  29.00    -0.68614    
 -55.00  30.00    -0.71764    
 -55.00  31.00    -0.72168    
 -55.00  32.00    -0.70587    
 -55.00  33.00    -0.67291    
 -55.00  34.00    -0.61754    
 -55.00  35.00    -0.52711    
 -55.00  36.00    -0.38600    
 -55.00  37.00    -0.18222    
 -55.00  38.00     0.86306E-01
 -55.00  39.00     0.40830    
 -55.00  40.00     0.76022    
 -55.00  41.00      1.1118    
 -55.00  42.00      1.4343    
 -55.00  43.00      1.7087    
 -55.00  44.00      1.9306    
 -55.00  45.00      2.1099    
 -55.00  46.00      2.2656    
 -55.00  47.00      2.4158    
 -55.00  48.00      2.5684    
 -55.00  49.00      2.7146    
 -55.00  50.00      2.8278    
 -55.00  51.00      2.8694    
 -55.00  52.00      2.8009    
 -55.00  53.00      2.5964    
 -55.00  54.00      2.2541    
 -55.00  55.00      1.8015    
 -55.00  56.00      1.2916    
 -55.00  57.00     0.79307    
 -55.00  58.00     0.37419    
 -55.00  59.00     0.88789E-01
 -55.00  60.00    -0.37503E-01
 -55.00  61.00    -0.10919E-01
 -55.00  62.00     0.13538    
 -55.00  63.00     0.35054    
 -55.00  64.00     0.58143    
 -55.00  65.00     0.78593    
 -55.00  66.00     0.94028    
 -55.00  67.00      1.0441    
 -55.00  68.00      1.1126    
 -55.00  69.00      1.1708    
 -55.00  70.00      1.2411    
 -55.00  71.00      1.3410    
 -55.00  72.00      1.4726    
 -55.00  73.00      1.6276    
 -55.00  74.00      1.7931    
 -55.00  75.00      1.9551    
 -55.00  76.00      2.1035    
 -55.00  77.00      2.2333    
 -55.00  78.00      2.3419    
 -55.00  79.00      2.4291    
 -55.00  80.00      2.4823    
 -55.00  81.00      2.4872    
 -55.00  82.00      2.4170    
 -55.00  83.00      2.2484    
 -55.00  84.00      1.9661    
 -55.00  85.00      1.5743    
 -55.00  86.00      1.0772    
 -55.00  87.00     0.51529    
 -55.00  88.00    -0.62036E-01
 -55.00  89.00    -0.60206    
 -54.00 -89.00      1.9010    
 -54.00 -88.00      1.7952    
 -54.00 -87.00      1.7141    
 -54.00 -86.00      1.6602    
 -54.00 -85.00      1.6229    
 -54.00 -84.00      1.5893    
 -54.00 -83.00      1.5466    
 -54.00 -82.00      1.4824    
 -54.00 -81.00      1.3941    
 -54.00 -80.00      1.2892    
 -54.00 -79.00      1.1857    
 -54.00 -78.00      1.1011    
 -54.00 -77.00      1.0467    
 -54.00 -76.00      1.0262    
 -54.00 -75.00      1.0241    
 -54.00 -74.00      1.0186    
 -54.00 -73.00     0.98409    
 -54.00 -72.00     0.89750    
 -54.00 -71.00     0.75121    
 -54.00 -70.00     0.55504    
 -54.00 -69.00     0.33589    
 -54.00 -68.00     0.12928    
 -54.00 -67.00    -0.29434E-01
 -54.00 -66.00    -0.11556    
 -54.00 -65.00    -0.12103    
 -54.00 -64.00    -0.56815E-01
 -54.00 -63.00     0.51810E-01
 -54.00 -62.00     0.17477    
 -54.00 -61.00     0.28703    
 -54.00 -60.00     0.37484    
 -54.00 -59.00     0.43952    
 -54.00 -58.00     0.49434    
 -54.00 -57.00     0.55679    
 -54.00 -56.00     0.63922    
 -54.00 -55.00     0.74203    
 -54.00 -54.00     0.85169    
 -54.00 -53.00     0.94370    
 -54.00 -52.00     0.99272    
 -54.00 -51.00     0.98147    
 -54.00 -50.00     0.90988    
 -54.00 -49.00     0.79787    
 -54.00 -48.00     0.68075    
 -54.00 -47.00     0.59995    
 -54.00 -46.00     0.58912    
 -54.00 -45.00     0.66166    
 -54.00 -44.00     0.80536    
 -54.00 -43.00     0.98306    
 -54.00 -42.00      1.1432    
 -54.00 -41.00      1.2345    
 -54.00 -40.00      1.2223    
 -54.00 -39.00      1.0999    
 -54.00 -38.00     0.89272    
 -54.00 -37.00     0.65178    
 -54.00 -36.00     0.44029    
 -54.00 -35.00     0.31584    
 -54.00 -34.00     0.31419    
 -54.00 -33.00     0.43931    
 -54.00 -32.00     0.66260    
 -54.00 -31.00     0.93126    
 -54.00 -30.00      1.1831    
 -54.00 -29.00      1.3632    
 -54.00 -28.00      1.4377    
 -54.00 -27.00      1.4005    
 -54.00 -26.00      1.2718    
 -54.00 -25.00      1.0902    
 -54.00 -24.00     0.90003    
 -54.00 -23.00     0.73981    
 -54.00 -22.00     0.63400    
 -54.00 -21.00     0.59071    
 -54.00 -20.00     0.60474    
 -54.00 -19.00     0.66410    
 -54.00 -18.00     0.75700    
 -54.00 -17.00     0.87635    
 -54.00 -16.00      1.0206    
 -54.00 -15.00      1.1908    
 -54.00 -14.00      1.3859    
 -54.00 -13.00      1.5984    
 -54.00 -12.00      1.8130    
 -54.00 -11.00      2.0086    
 -54.00 -10.00      2.1644    
 -54.00  -9.00      2.2657    
 -54.00  -8.00      2.3095    
 -54.00  -7.00      2.3060    
 -54.00  -6.00      2.2754    
 -54.00  -5.00      2.2407    
 -54.00  -4.00      2.2198    
 -54.00  -3.00      2.2177    
 -54.00  -2.00      2.2242    
 -54.00  -1.00      2.2161    
 -54.00   0.00      2.1650    
 -54.00   1.00      2.0469    
 -54.00   2.00      1.8520    
 -54.00   3.00      1.5897    
 -54.00   4.00      1.2878    
 -54.00   5.00     0.98650    
 -54.00   6.00     0.72755    
 -54.00   7.00     0.54303    
 -54.00   8.00     0.44707    
 -54.00   9.00     0.43281    
 -54.00  10.00     0.47563    
 -54.00  11.00     0.54137    
 -54.00  12.00     0.59665    
 -54.00  13.00     0.61809    
 -54.00  14.00     0.59746    
 -54.00  15.00     0.54142    
 -54.00  16.00     0.46657    
 -54.00  17.00     0.39166    
 -54.00  18.00     0.33010    
 -54.00  19.00     0.28527    
 -54.00  20.00     0.25007    
 -54.00  21.00     0.21056    
 -54.00  22.00     0.15202    
 -54.00  23.00     0.64885E-01
 -54.00  24.00    -0.51551E-01
 -54.00  25.00    -0.18902    
 -54.00  26.00    -0.33350    
 -54.00  27.00    -0.47034    
 -54.00  28.00    -0.58890    
 -54.00  29.00    -0.68493    
 -54.00  30.00    -0.75961    
 -54.00  31.00    -0.81577    
 -54.00  32.00    -0.85293    
 -54.00  33.00    -0.86354    
 -54.00  34.00    -0.83240    
 -54.00  35.00    -0.73994    
 -54.00  36.00    -0.56874    
 -54.00  37.00    -0.31089    
 -54.00  38.00     0.26328E-01
 -54.00  39.00     0.41913    
 -54.00  40.00     0.83113    
 -54.00  41.00      1.2219    
 -54.00  42.00      1.5571    
 -54.00  43.00      1.8181    
 -54.00  44.00      2.0057    
 -54.00  45.00      2.1384    
 -54.00  46.00      2.2446    
 -54.00  47.00      2.3503    
 -54.00  48.00      2.4681    
 -54.00  49.00      2.5899    
 -54.00  50.00      2.6867    
 -54.00  51.00      2.7162    
 -54.00  52.00      2.6356    
 -54.00  53.00      2.4168    
 -54.00  54.00      2.0575    
 -54.00  55.00      1.5873    
 -54.00  56.00      1.0627    
 -54.00  57.00     0.55576    
 -54.00  58.00     0.13735    
 -54.00  59.00    -0.13820    
 -54.00  60.00    -0.24632    
 -54.00  61.00    -0.19598    
 -54.00  62.00    -0.23600E-01
 -54.00  63.00     0.21714    
 -54.00  64.00     0.47108    
 -54.00  65.00     0.69566    
 -54.00  66.00     0.86739    
 -54.00  67.00     0.98674    
 -54.00  68.00      1.0697    
 -54.00  69.00      1.1414    
 -54.00  70.00      1.2237    
 -54.00  71.00      1.3332    
 -54.00  72.00      1.4712    
 -54.00  73.00      1.6289    
 -54.00  74.00      1.7939    
 -54.00  75.00      1.9533    
 -54.00  76.00      2.0985    
 -54.00  77.00      2.2262    
 -54.00  78.00      2.3345    
 -54.00  79.00      2.4230    
 -54.00  80.00      2.4786    
 -54.00  81.00      2.4856    
 -54.00  82.00      2.4158    
 -54.00  83.00      2.2458    
 -54.00  84.00      1.9604    
 -54.00  85.00      1.5646    
 -54.00  86.00      1.0644    
 -54.00  87.00     0.50199    
 -54.00  88.00    -0.73208E-01
 -54.00  89.00    -0.60834    
 -53.00 -89.00      1.9059    
 -53.00 -88.00      1.8053    
 -53.00 -87.00      1.7291    
 -53.00 -86.00      1.6786    
 -53.00 -85.00      1.6420    
 -53.00 -84.00      1.6056    
 -53.00 -83.00      1.5585    
 -53.00 -82.00      1.4862    
 -53.00 -81.00      1.3903    
 -53.00 -80.00      1.2802    
 -53.00 -79.00      1.1753    
 -53.00 -78.00      1.0937    
 -53.00 -77.00      1.0458    
 -53.00 -76.00      1.0331    
 -53.00 -75.00      1.0374    
 -53.00 -74.00      1.0337    
 -53.00 -73.00     0.99485    
 -53.00 -72.00     0.89825    
 -53.00 -71.00     0.73835    
 -53.00 -70.00     0.52935    
 -53.00 -69.00     0.30311    
 -53.00 -68.00     0.99291E-01
 -53.00 -67.00    -0.44387E-01
 -53.00 -66.00    -0.10351    
 -53.00 -65.00    -0.73243E-01
 -53.00 -64.00     0.30111E-01
 -53.00 -63.00     0.17526    
 -53.00 -62.00     0.32677    
 -53.00 -61.00     0.45610    
 -53.00 -60.00     0.54927    
 -53.00 -59.00     0.60992    
 -53.00 -58.00     0.65566    
 -53.00 -57.00     0.70892    
 -53.00 -56.00     0.78583    
 -53.00 -55.00     0.88846    
 -53.00 -54.00      1.0019    
 -53.00 -53.00      1.0980    
 -53.00 -52.00      1.1459    
 -53.00 -51.00      1.1231    
 -53.00 -50.00      1.0254    
 -53.00 -49.00     0.87206    
 -53.00 -48.00     0.70040    
 -53.00 -47.00     0.55708    
 -53.00 -46.00     0.48287    
 -53.00 -45.00     0.49877    
 -53.00 -44.00     0.59921    
 -53.00 -43.00     0.75162    
 -53.00 -42.00     0.90626    
 -53.00 -41.00      1.0110    
 -53.00 -40.00      1.0282    
 -53.00 -39.00     0.94682    
 -53.00 -38.00     0.78764    
 -53.00 -37.00     0.59774    
 -53.00 -36.00     0.43736    
 -53.00 -35.00     0.36238    
 -53.00 -34.00     0.40795    
 -53.00 -33.00     0.57823    
 -53.00 -32.00     0.84526    
 -53.00 -31.00      1.1569    
 -53.00 -30.00      1.4516    
 -53.00 -29.00      1.6749    
 -53.00 -28.00      1.7926    
 -53.00 -27.00      1.7982    
 -53.00 -26.00      1.7111    
 -53.00 -25.00      1.5680    
 -53.00 -24.00      1.4110    
 -53.00 -23.00      1.2754    
 -53.00 -22.00      1.1818    
 -53.00 -21.00      1.1343    
 -53.00 -20.00      1.1242    
 -53.00 -19.00      1.1371    
 -53.00 -18.00      1.1605    
 -53.00 -17.00      1.1893    
 -53.00 -16.00      1.2270    
 -53.00 -15.00      1.2820    
 -53.00 -14.00      1.3629    
 -53.00 -13.00      1.4726    
 -53.00 -12.00      1.6053    
 -53.00 -11.00      1.7477    
 -53.00 -10.00      1.8824    
 -53.00  -9.00      1.9943    
 -53.00  -8.00      2.0756    
 -53.00  -7.00      2.1277    
 -53.00  -6.00      2.1602    
 -53.00  -5.00      2.1854    
 -53.00  -4.00      2.2119    
 -53.00  -3.00      2.2390    
 -53.00  -2.00      2.2546    
 -53.00  -1.00      2.2378    
 -53.00   0.00      2.1651    
 -53.00   1.00      2.0189    
 -53.00   2.00      1.7953    
 -53.00   3.00      1.5079    
 -53.00   4.00      1.1867    
 -53.00   5.00     0.87156    
 -53.00   6.00     0.60276    
 -53.00   7.00     0.41067    
 -53.00   8.00     0.30863    
 -53.00   9.00     0.29055    
 -53.00  10.00     0.33401    
 -53.00  11.00     0.40769    
 -53.00  12.00     0.48044    
 -53.00  13.00     0.52928    
 -53.00  14.00     0.54382    
 -53.00  15.00     0.52606    
 -53.00  16.00     0.48640    
 -53.00  17.00     0.43744    
 -53.00  18.00     0.38827    
 -53.00  19.00     0.34116    
 -53.00  20.00     0.29159    
 -53.00  21.00     0.23134    
 -53.00  22.00     0.15282    
 -53.00  23.00     0.52936E-01
 -53.00  24.00    -0.65312E-01
 -53.00  25.00    -0.19402    
 -53.00  26.00    -0.32370    
 -53.00  27.00    -0.44709    
 -53.00  28.00    -0.56163    
 -53.00  29.00    -0.66916    
 -53.00  30.00    -0.77280    
 -53.00  31.00    -0.87208    
 -53.00  32.00    -0.95839    
 -53.00  33.00     -1.0132    
 -53.00  34.00     -1.0102    
 -53.00  35.00    -0.92162    
 -53.00  36.00    -0.72725    
 -53.00  37.00    -0.42253    
 -53.00  38.00    -0.23655E-01
 -53.00  39.00     0.43322    
 -53.00  40.00     0.89895    
 -53.00  41.00      1.3229    
 -53.00  42.00      1.6654    
 -53.00  43.00      1.9083    
 -53.00  44.00      2.0578    
 -53.00  45.00      2.1413    
 -53.00  46.00      2.1967    
 -53.00  47.00      2.2579    
 -53.00  48.00      2.3421    
 -53.00  49.00      2.4421    
 -53.00  50.00      2.5267    
 -53.00  51.00      2.5492    
 -53.00  52.00      2.4632    
 -53.00  53.00      2.2378    
 -53.00  54.00      1.8703    
 -53.00  55.00      1.3919    
 -53.00  56.00     0.86175    
 -53.00  57.00     0.35492    
 -53.00  58.00    -0.55920E-01
 -53.00  59.00    -0.31657    
 -53.00  60.00    -0.40391    
 -53.00  61.00    -0.32973    
 -53.00  62.00    -0.13346    
 -53.00  63.00     0.12887    
 -53.00  64.00     0.40072    
 -53.00  65.00     0.63973    
 -53.00  66.00     0.82340    
 -53.00  67.00     0.95335    
 -53.00  68.00      1.0466    
 -53.00  69.00      1.1283    
 -53.00  70.00      1.2199    
 -53.00  71.00      1.3367    
 -53.00  72.00      1.4792    
 -53.00  73.00      1.6378    
 -53.00  74.00      1.8008    
 -53.00  75.00      1.9559    
 -53.00  76.00      2.0964    
 -53.00  77.00      2.2206    
 -53.00  78.00      2.3275    
 -53.00  79.00      2.4163    
 -53.00  80.00      2.4736    
 -53.00  81.00      2.4820    
 -53.00  82.00      2.4124    
 -53.00  83.00      2.2410    
 -53.00  84.00      1.9527    
 -53.00  85.00      1.5531    
 -53.00  86.00      1.0503    
 -53.00  87.00     0.48775    
 -53.00  88.00    -0.84874E-01
 -53.00  89.00    -0.61479    
 -52.00 -89.00      1.9107    
 -52.00 -88.00      1.8153    
 -52.00 -87.00      1.7439    
 -52.00 -86.00      1.6964    
 -52.00 -85.00      1.6605    
 -52.00 -84.00      1.6211    
 -52.00 -83.00      1.5696    
 -52.00 -82.00      1.4895    
 -52.00 -81.00      1.3864    
 -52.00 -80.00      1.2716    
 -52.00 -79.00      1.1655    
 -52.00 -78.00      1.0870    
 -52.00 -77.00      1.0454    
 -52.00 -76.00      1.0399    
 -52.00 -75.00      1.0498    
 -52.00 -74.00      1.0471    
 -52.00 -73.00      1.0033    
 -52.00 -72.00     0.89602    
 -52.00 -71.00     0.72196    
 -52.00 -70.00     0.49938    
 -52.00 -69.00     0.26491    
 -52.00 -68.00     0.62177E-01
 -52.00 -67.00    -0.68846E-01
 -52.00 -66.00    -0.10392    
 -52.00 -65.00    -0.41392E-01
 -52.00 -64.00     0.97485E-01
 -52.00 -63.00     0.27574    
 -52.00 -62.00     0.45276    
 -52.00 -61.00     0.59664    
 -52.00 -60.00     0.69308    
 -52.00 -59.00     0.74797    
 -52.00 -58.00     0.78301    
 -52.00 -57.00     0.82554    
 -52.00 -56.00     0.89554    
 -52.00 -55.00     0.99707    
 -52.00 -54.00      1.1143    
 -52.00 -53.00      1.2160    
 -52.00 -52.00      1.2662    
 -52.00 -51.00      1.2369    
 -52.00 -50.00      1.1200    
 -52.00 -49.00     0.93305    
 -52.00 -48.00     0.71445    
 -52.00 -47.00     0.51501    
 -52.00 -46.00     0.38162    
 -52.00 -45.00     0.34237    
 -52.00 -44.00     0.39823    
 -52.00 -43.00     0.52167    
 -52.00 -42.00     0.66552    
 -52.00 -41.00     0.77757    
 -52.00 -40.00     0.81770    
 -52.00 -39.00     0.77091    
 -52.00 -38.00     0.65299    
 -52.00 -37.00     0.50627    
 -52.00 -36.00     0.38703    
 -52.00 -35.00     0.34854    
 -52.00 -34.00     0.42491    
 -52.00 -33.00     0.62072    
 -52.00 -32.00     0.90963    
 -52.00 -31.00      1.2419    
 -52.00 -30.00      1.5585    
 -52.00 -29.00      1.8072    
 -52.00 -28.00      1.9552    
 -52.00 -27.00      1.9960    
 -52.00 -26.00      1.9475    
 -52.00 -25.00      1.8435    
 -52.00 -24.00      1.7216    
 -52.00 -23.00      1.6120    
 -52.00 -22.00      1.5303    
 -52.00 -21.00      1.4761    
 -52.00 -20.00      1.4379    
 -52.00 -19.00      1.4006    
 -52.00 -18.00      1.3538    
 -52.00 -17.00      1.2972    
 -52.00 -16.00      1.2411    
 -52.00 -15.00      1.2027    
 -52.00 -14.00      1.1995    
 -52.00 -13.00      1.2424    
 -52.00 -12.00      1.3320    
 -52.00 -11.00      1.4578    
 -52.00 -10.00      1.6018    
 -52.00  -9.00      1.7447    
 -52.00  -8.00      1.8717    
 -52.00  -7.00      1.9755    
 -52.00  -6.00      2.0569    
 -52.00  -5.00      2.1208    
 -52.00  -4.00      2.1711    
 -52.00  -3.00      2.2060    
 -52.00  -2.00      2.2156    
 -52.00  -1.00      2.1834    
 -52.00   0.00      2.0917    
 -52.00   1.00      1.9285    
 -52.00   2.00      1.6937    
 -52.00   3.00      1.4023    
 -52.00   4.00      1.0834    
 -52.00   5.00     0.77424    
 -52.00   6.00     0.51207    
 -52.00   7.00     0.32503    
 -52.00   8.00     0.22597    
 -52.00   9.00     0.21027    
 -52.00  10.00     0.25842    
 -52.00  11.00     0.34219    
 -52.00  12.00     0.43241    
 -52.00  13.00     0.50570    
 -52.00  14.00     0.54847    
 -52.00  15.00     0.55719    
 -52.00  16.00     0.53574    
 -52.00  17.00     0.49116    
 -52.00  18.00     0.42977    
 -52.00  19.00     0.35512    
 -52.00  20.00     0.26818    
 -52.00  21.00     0.16923    
 -52.00  22.00     0.60136E-01
 -52.00  23.00    -0.54427E-01
 -52.00  24.00    -0.16763    
 -52.00  25.00    -0.27300    
 -52.00  26.00    -0.36756    
 -52.00  27.00    -0.45402    
 -52.00  28.00    -0.54054    
 -52.00  29.00    -0.63749    
 -52.00  30.00    -0.75174    
 -52.00  31.00    -0.88065    
 -52.00  32.00     -1.0080    
 -52.00  33.00     -1.1041    
 -52.00  34.00     -1.1312    
 -52.00  35.00     -1.0525    
 -52.00  36.00    -0.84396    
 -52.00  37.00    -0.50355    
 -52.00  38.00    -0.55353E-01
 -52.00  39.00     0.45313    
 -52.00  40.00     0.96092    
 -52.00  41.00      1.4080    
 -52.00  42.00      1.7502    
 -52.00  43.00      1.9698    
 -52.00  44.00      2.0789    
 -52.00  45.00      2.1133    
 -52.00  46.00      2.1200    
 -52.00  47.00      2.1401    
 -52.00  48.00      2.1950    
 -52.00  49.00      2.2780    
 -52.00  50.00      2.3553    
 -52.00  51.00      2.3765    
 -52.00  52.00      2.2911    
 -52.00  53.00      2.0660    
 -52.00  54.00      1.6980    
 -52.00  55.00      1.2196    
 -52.00  56.00     0.69244    
 -52.00  57.00     0.19363    
 -52.00  58.00    -0.20300    
 -52.00  59.00    -0.44407    
 -52.00  60.00    -0.50842    
 -52.00  61.00    -0.41071    
 -52.00  62.00    -0.19325    
 -52.00  63.00     0.86169E-01
 -52.00  64.00     0.37028    
 -52.00  65.00     0.61764    
 -52.00  66.00     0.80746    
 -52.00  67.00     0.94277    
 -52.00  68.00      1.0419    
 -52.00  69.00      1.1303    
 -52.00  70.00      1.2285    
 -52.00  71.00      1.3506    
 -52.00  72.00      1.4958    
 -52.00  73.00      1.6538    
 -52.00  74.00      1.8131    
 -52.00  75.00      1.9626    
 -52.00  76.00      2.0970    
 -52.00  77.00      2.2165    
 -52.00  78.00      2.3209    
 -52.00  79.00      2.4089    
 -52.00  80.00      2.4671    
 -52.00  81.00      2.4765    
 -52.00  82.00      2.4067    
 -52.00  83.00      2.2340    
 -52.00  84.00      1.9431    
 -52.00  85.00      1.5398    
 -52.00  86.00      1.0347    
 -52.00  87.00     0.47258    
 -52.00  88.00    -0.97031E-01
 -52.00  89.00    -0.62142    
 -51.00 -89.00      1.9156    
 -51.00 -88.00      1.8252    
 -51.00 -87.00      1.7584    
 -51.00 -86.00      1.7138    
 -51.00 -85.00      1.6783    
 -51.00 -84.00      1.6361    
 -51.00 -83.00      1.5800    
 -51.00 -82.00      1.4925    
 -51.00 -81.00      1.3827    
 -51.00 -80.00      1.2636    
 -51.00 -79.00      1.1566    
 -51.00 -78.00      1.0812    
 -51.00 -77.00      1.0456    
 -51.00 -76.00      1.0467    
 -51.00 -75.00      1.0614    
 -51.00 -74.00      1.0591    
 -51.00 -73.00      1.0096    
 -51.00 -72.00     0.89107    
 -51.00 -71.00     0.70249    
 -51.00 -70.00     0.46577    
 -51.00 -69.00     0.22205    
 -51.00 -68.00     0.18696E-01
 -51.00 -67.00    -0.10221    
 -51.00 -66.00    -0.11655    
 -51.00 -65.00    -0.25735E-01
 -51.00 -64.00     0.14442    
 -51.00 -63.00     0.35161    
 -51.00 -62.00     0.55036    
 -51.00 -61.00     0.70547    
 -51.00 -60.00     0.80232    
 -51.00 -59.00     0.84890    
 -51.00 -58.00     0.87079    
 -51.00 -57.00     0.90007    
 -51.00 -56.00     0.96069    
 -51.00 -55.00      1.0590    
 -51.00 -54.00      1.1790    
 -51.00 -53.00      1.2868    
 -51.00 -52.00      1.3421    
 -51.00 -51.00      1.3120    
 -51.00 -50.00      1.1841    
 -51.00 -49.00     0.97368    
 -51.00 -48.00     0.71956    
 -51.00 -47.00     0.47528    
 -51.00 -46.00     0.29253    
 -51.00 -45.00     0.20555    
 -51.00 -44.00     0.22108    
 -51.00 -43.00     0.31643    
 -51.00 -42.00     0.44715    
 -51.00 -41.00     0.56143    
 -51.00 -40.00     0.61723    
 -51.00 -39.00     0.59584    
 -51.00 -38.00     0.50829    
 -51.00 -37.00     0.39194    
 -51.00 -36.00     0.29877    
 -51.00 -35.00     0.27914    
 -51.00 -34.00     0.36603    
 -51.00 -33.00     0.56479    
 -51.00 -32.00     0.85154    
 -51.00 -31.00      1.1802    
 -51.00 -30.00      1.4958    
 -51.00 -29.00      1.7497    
 -51.00 -28.00      1.9116    
 -51.00 -27.00      1.9756    
 -51.00 -26.00      1.9580    
 -51.00 -25.00      1.8889    
 -51.00 -24.00      1.8009    
 -51.00 -23.00      1.7181    
 -51.00 -22.00      1.6506    
 -51.00 -21.00      1.5937    
 -51.00 -20.00      1.5338    
 -51.00 -19.00      1.4566    
 -51.00 -18.00      1.3551    
 -51.00 -17.00      1.2349    
 -51.00 -16.00      1.1140    
 -51.00 -15.00      1.0172    
 -51.00 -14.00     0.96924    
 -51.00 -13.00     0.98622    
 -51.00 -12.00      1.0709    
 -51.00 -11.00      1.2119    
 -51.00 -10.00      1.3875    
 -51.00  -9.00      1.5720    
 -51.00  -8.00      1.7427    
 -51.00  -7.00      1.8851    
 -51.00  -6.00      1.9938    
 -51.00  -5.00      2.0703    
 -51.00  -4.00      2.1183    
 -51.00  -3.00      2.1387    
 -51.00  -2.00      2.1269    
 -51.00  -1.00      2.0727    
 -51.00   0.00      1.9645    
 -51.00   1.00      1.7945    
 -51.00   2.00      1.5641    
 -51.00   3.00      1.2873    
 -51.00   4.00     0.98941    
 -51.00   5.00     0.70314    
 -51.00   6.00     0.46120    
 -51.00   7.00     0.28897    
 -51.00   8.00     0.19884    
 -51.00   9.00     0.18803    
 -51.00  10.00     0.24031    
 -51.00  11.00     0.33082    
 -51.00  12.00     0.43229    
 -51.00  13.00     0.52072    
 -51.00  14.00     0.57905    
 -51.00  15.00     0.59824    
 -51.00  16.00     0.57612    
 -51.00  17.00     0.51519    
 -51.00  18.00     0.42061    
 -51.00  19.00     0.29916    
 -51.00  20.00     0.15926    
 -51.00  21.00     0.11418E-01
 -51.00  22.00    -0.13188    
 -51.00  23.00    -0.25776    
 -51.00  24.00    -0.35592    
 -51.00  25.00    -0.42234    
 -51.00  26.00    -0.46206    
 -51.00  27.00    -0.48956    
 -51.00  28.00    -0.52554    
 -51.00  29.00    -0.59053    
 -51.00  30.00    -0.69660    
 -51.00  31.00    -0.84012    
 -51.00  32.00    -0.99810    
 -51.00  33.00     -1.1303    
 -51.00  34.00     -1.1876    
 -51.00  35.00     -1.1241    
 -51.00  36.00    -0.91166    
 -51.00  37.00    -0.54935    
 -51.00  38.00    -0.67853E-01
 -51.00  39.00     0.47566    
 -51.00  40.00      1.0101    
 -51.00  41.00      1.4678    
 -51.00  42.00      1.8008    
 -51.00  43.00      1.9928    
 -51.00  44.00      2.0612    
 -51.00  45.00      2.0498    
 -51.00  46.00      2.0134    
 -51.00  47.00      1.9993    
 -51.00  48.00      2.0320    
 -51.00  49.00      2.1044    
 -51.00  50.00      2.1802    
 -51.00  51.00      2.2052    
 -51.00  52.00      2.1255    
 -51.00  53.00      1.9062    
 -51.00  54.00      1.5440    
 -51.00  55.00      1.0726    
 -51.00  56.00     0.55576    
 -51.00  57.00     0.72057E-01
 -51.00  58.00    -0.30433    
 -51.00  59.00    -0.52160    
 -51.00  60.00    -0.56108    
 -51.00  61.00    -0.44048    
 -51.00  62.00    -0.20478    
 -51.00  63.00     0.86942E-01
 -51.00  64.00     0.37749    
 -51.00  65.00     0.62701    
 -51.00  66.00     0.81712    
 -51.00  67.00     0.95266    
 -51.00  68.00      1.0536    
 -51.00  69.00      1.1454    
 -51.00  70.00      1.2479    
 -51.00  71.00      1.3734    
 -51.00  72.00      1.5198    
 -51.00  73.00      1.6759    
 -51.00  74.00      1.8304    
 -51.00  75.00      1.9730    
 -51.00  76.00      2.1002    
 -51.00  77.00      2.2138    
 -51.00  78.00      2.3146    
 -51.00  79.00      2.4010    
 -51.00  80.00      2.4593    
 -51.00  81.00      2.4691    
 -51.00  82.00      2.3989    
 -51.00  83.00      2.2248    
 -51.00  84.00      1.9315    
 -51.00  85.00      1.5245    
 -51.00  86.00      1.0178    
 -51.00  87.00     0.45645    
 -51.00  88.00    -0.10967    
 -51.00  89.00    -0.62821    
 -50.00 -89.00      1.9205    
 -50.00 -88.00      1.8350    
 -50.00 -87.00      1.7727    
 -50.00 -86.00      1.7307    
 -50.00 -85.00      1.6955    
 -50.00 -84.00      1.6505    
 -50.00 -83.00      1.5898    
 -50.00 -82.00      1.4953    
 -50.00 -81.00      1.3792    
 -50.00 -80.00      1.2562    
 -50.00 -79.00      1.1486    
 -50.00 -78.00      1.0763    
 -50.00 -77.00      1.0463    
 -50.00 -76.00      1.0534    
 -50.00 -75.00      1.0723    
 -50.00 -74.00      1.0695    
 -50.00 -73.00      1.0139    
 -50.00 -72.00     0.88371    
 -50.00 -71.00     0.68047    
 -50.00 -70.00     0.42926    
 -50.00 -69.00     0.17544    
 -50.00 -68.00    -0.30143E-01
 -50.00 -67.00    -0.14349    
 -50.00 -66.00    -0.14059    
 -50.00 -65.00    -0.25739E-01
 -50.00 -64.00     0.17108    
 -50.00 -63.00     0.40258    
 -50.00 -62.00     0.61878    
 -50.00 -61.00     0.78138    
 -50.00 -60.00     0.87533    
 -50.00 -59.00     0.91058    
 -50.00 -58.00     0.91631    
 -50.00 -57.00     0.92913    
 -50.00 -56.00     0.97706    
 -50.00 -55.00      1.0691    
 -50.00 -54.00      1.1896    
 -50.00 -53.00      1.3031    
 -50.00 -52.00      1.3657    
 -50.00 -51.00      1.3401    
 -50.00 -50.00      1.2101    
 -50.00 -49.00     0.98827    
 -50.00 -48.00     0.71289    
 -50.00 -47.00     0.43898    
 -50.00 -46.00     0.22148    
 -50.00 -45.00     0.99309E-01
 -50.00 -44.00     0.83813E-01
 -50.00 -43.00     0.15638    
 -50.00 -42.00     0.27497    
 -50.00 -41.00     0.38835    
 -50.00 -40.00     0.45295    
 -50.00 -39.00     0.44695    
 -50.00 -38.00     0.37705    
 -50.00 -37.00     0.27603    
 -50.00 -36.00     0.19185    
 -50.00 -35.00     0.17212    
 -50.00 -34.00     0.24894    
 -50.00 -33.00     0.42890    
 -50.00 -32.00     0.69122    
 -50.00 -31.00     0.99430    
 -50.00 -30.00      1.2882    
 -50.00 -29.00      1.5289    
 -50.00 -28.00      1.6893    
 -50.00 -27.00      1.7646    
 -50.00 -26.00      1.7698    
 -50.00 -25.00      1.7313    
 -50.00 -24.00      1.6765    
 -50.00 -23.00      1.6236    
 -50.00 -22.00      1.5771    
 -50.00 -21.00      1.5286    
 -50.00 -20.00      1.4628    
 -50.00 -19.00      1.3668    
 -50.00 -18.00      1.2374    
 -50.00 -17.00      1.0860    
 -50.00 -16.00     0.93674    
 -50.00 -15.00     0.82085    
 -50.00 -14.00     0.76734    
 -50.00 -13.00     0.79446    
 -50.00 -12.00     0.90413    
 -50.00 -11.00      1.0814    
 -50.00 -10.00      1.2986    
 -50.00  -9.00      1.5233    
 -50.00  -8.00      1.7260    
 -50.00  -7.00      1.8866    
 -50.00  -6.00      1.9968    
 -50.00  -5.00      2.0583    
 -50.00  -4.00      2.0780    
 -50.00  -3.00      2.0626    
 -50.00  -2.00      2.0147    
 -50.00  -1.00      1.9315    
 -50.00   0.00      1.8069    
 -50.00   1.00      1.6363    
 -50.00   2.00      1.4208    
 -50.00   3.00      1.1710    
 -50.00   4.00     0.90682    
 -50.00   5.00     0.65474    
 -50.00   6.00     0.44198    
 -50.00   7.00     0.29050    
 -50.00   8.00     0.21199    
 -50.00   9.00     0.20543    
 -50.00  10.00     0.25795    
 -50.00  11.00     0.34810    
 -50.00  12.00     0.45068    
 -50.00  13.00     0.54134    
 -50.00  14.00     0.60012    
 -50.00  15.00     0.61328    
 -50.00  16.00     0.57371    
 -50.00  17.00     0.48072    
 -50.00  18.00     0.33960    
 -50.00  19.00     0.16149    
 -50.00  20.00    -0.36941E-01
 -50.00  21.00    -0.23459    
 -50.00  22.00    -0.40852    
 -50.00  23.00    -0.53816    
