 -78.00 -57.00     0.23574    
 -78.00 -56.00     0.25914    
 -78.00 -55.00     0.28604    
 -78.00 -54.00     0.29643    
 -78.00 -53.00     0.27987    
 -78.00 -52.00     0.24143    
 -78.00 -51.00     0.20055    
 -78.00 -50.00     0.18543    
 -78.00 -49.00     0.22264    
 -78.00 -48.00     0.32650    
 -78.00 -47.00     0.49172    
 -78.00 -46.00     0.69189    
 -78.00 -45.00     0.88532    
 -78.00 -44.00      1.0269    
 -78.00 -43.00      1.0814    
 -78.00 -42.00      1.0355    
 -78.00 -41.00     0.90270    
 -78.00 -40.00     0.72050    
 -78.00 -39.00     0.53979    
 -78.00 -38.00     0.40964    
 -78.00 -37.00     0.36236    
 -78.00 -36.00     0.40360    
 -78.00 -35.00     0.51093    
 -78.00 -34.00     0.64143    
 -78.00 -33.00     0.74592    
 -78.00 -32.00     0.78534    
 -78.00 -31.00     0.74381    
 -78.00 -30.00     0.63395    
 -78.00 -29.00     0.49253    
 -78.00 -28.00     0.36786    
 -78.00 -27.00     0.30280    
 -78.00 -26.00     0.31921    
 -78.00 -25.00     0.40905    
 -78.00 -24.00     0.53546    
 -78.00 -23.00     0.64367    
 -78.00 -22.00     0.67863    
 -78.00 -21.00     0.60368    
 -78.00 -20.00     0.41409    
 -78.00 -19.00     0.14104    
 -78.00 -18.00    -0.15575    
 -78.00 -17.00    -0.40467    
 -78.00 -16.00    -0.54313    
 -78.00 -15.00    -0.53633    
 -78.00 -14.00    -0.38797    
 -78.00 -13.00    -0.13947    
 -78.00 -12.00     0.14214    
 -78.00 -11.00     0.38398    
 -78.00 -10.00     0.52862    
 -78.00  -9.00     0.55051    
 -78.00  -8.00     0.46247    
 -78.00  -7.00     0.31039    
 -78.00  -6.00     0.15811    
 -78.00  -5.00     0.67097E-01
 -78.00  -4.00     0.77448E-01
 -78.00  -3.00     0.19601    
 -78.00  -2.00     0.39504    
 -78.00  -1.00     0.62167    
 -78.00   0.00     0.81486    
 -78.00   1.00     0.92451    
 -78.00   2.00     0.92668    
 -78.00   3.00     0.83045    
 -78.00   4.00     0.67438    
 -78.00   5.00     0.51409    
 -78.00   6.00     0.40497    
 -78.00   7.00     0.38544    
 -78.00   8.00     0.46577    
 -78.00   9.00     0.62577    
 -78.00  10.00     0.82156    
 -78.00  11.00     0.99912    
 -78.00  12.00      1.1103    
 -78.00  13.00      1.1263    
 -78.00  14.00      1.0452    
 -78.00  15.00     0.89078    
 -78.00  16.00     0.70473    
 -78.00  17.00     0.53356    
 -78.00  18.00     0.41535    
 -78.00  19.00     0.36971    
 -78.00  20.00     0.39365    
 -78.00  21.00     0.46415    
 -78.00  22.00     0.54619    
 -78.00  23.00     0.60347    
 -78.00  24.00     0.60873    
 -78.00  25.00     0.55074    
 -78.00  26.00     0.43637    
 -78.00  27.00     0.28775    
 -78.00  28.00     0.13565    
 -78.00  29.00     0.11268E-01
 -78.00  30.00    -0.61321E-01
 -78.00  31.00    -0.70268E-01
 -78.00  32.00    -0.17672E-01
 -78.00  33.00     0.82006E-01
 -78.00  34.00     0.20602    
 -78.00  35.00     0.32862    
 -78.00  36.00     0.42630    
 -78.00  37.00     0.48190    
 -78.00  38.00     0.48716    
 -78.00  39.00     0.44331    
 -78.00  40.00     0.36021    
 -78.00  41.00     0.25402    
 -78.00  42.00     0.14410    
 -78.00  43.00     0.49627E-01
 -78.00  44.00    -0.13936E-01
 -78.00  45.00    -0.37564E-01
 -78.00  46.00    -0.20303E-01
 -78.00  47.00     0.30136E-01
 -78.00  48.00     0.98859E-01
 -78.00  49.00     0.16670    
 -78.00  50.00     0.21357    
 -78.00  51.00     0.22266    
 -78.00  52.00     0.18392    
 -78.00  53.00     0.96043E-01
 -78.00  54.00    -0.33231E-01
 -78.00  55.00    -0.18832    
 -78.00  56.00    -0.34932    
 -78.00  57.00    -0.49522    
 -78.00  58.00    -0.60782    
 -78.00  59.00    -0.67444    
 -78.00  60.00    -0.68954    
 -78.00  61.00    -0.65488    
 -78.00  62.00    -0.57888    
 -78.00  63.00    -0.47469    
 -78.00  64.00    -0.35785    
 -78.00  65.00    -0.24423    
 -78.00  66.00    -0.14777    
 -78.00  67.00    -0.78869E-01
 -78.00  68.00    -0.42557E-01
 -78.00  69.00    -0.38206E-01
 -78.00  70.00    -0.59334E-01
 -78.00  71.00    -0.95201E-01
 -78.00  72.00    -0.13215    
 -78.00  73.00    -0.15663    
 -78.00  74.00    -0.15805    
 -78.00  75.00    -0.13260    
 -78.00  76.00    -0.81389E-01
 -78.00  77.00    -0.14956E-01
 -78.00  78.00     0.54172E-01
 -78.00  79.00     0.11230    
 -78.00  80.00     0.14915    
 -78.00  81.00     0.16077    
 -78.00  82.00     0.15043    
 -78.00  83.00     0.12800    
 -78.00  84.00     0.10662    
 -78.00  85.00     0.99212E-01
 -78.00  86.00     0.10930    
 -78.00  87.00     0.13501    
 -78.00  88.00     0.16437    
 -78.00  89.00     0.18244    
 -77.00 -89.00     0.52252    
 -77.00 -88.00     0.43945    
 -77.00 -87.00     0.37817    
 -77.00 -86.00     0.34296    
 -77.00 -85.00     0.32844    
 -77.00 -84.00     0.32380    
 -77.00 -83.00     0.31773    
 -77.00 -82.00     0.29977    
 -77.00 -81.00     0.26353    
 -77.00 -80.00     0.20798    
 -77.00 -79.00     0.13782    
 -77.00 -78.00     0.56950E-01
 -77.00 -77.00    -0.30632E-01
 -77.00 -76.00    -0.11911    
 -77.00 -75.00    -0.20387    
 -77.00 -74.00    -0.27682    
 -77.00 -73.00    -0.32746    
 -77.00 -72.00    -0.34313    
 -77.00 -71.00    -0.31217    
 -77.00 -70.00    -0.22794    
 -77.00 -69.00    -0.93580E-01
 -77.00 -68.00     0.77543E-01
 -77.00 -67.00     0.26152    
 -77.00 -66.00     0.42951    
 -77.00 -65.00     0.55385    
 -77.00 -64.00     0.61537    
 -77.00 -63.00     0.61006    
 -77.00 -62.00     0.54900    
 -77.00 -61.00     0.45607    
 -77.00 -60.00     0.36007    
 -77.00 -59.00     0.28678    
 -77.00 -58.00     0.25028    
 -77.00 -57.00     0.24971    
 -77.00 -56.00     0.27056    
 -77.00 -55.00     0.29095    
 -77.00 -54.00     0.29105    
 -77.00 -53.00     0.26138    
 -77.00 -52.00     0.20853    
 -77.00 -51.00     0.15376    
 -77.00 -50.00     0.12700    
 -77.00 -49.00     0.15587    
 -77.00 -48.00     0.25507    
 -77.00 -47.00     0.41884    
 -77.00 -46.00     0.61990    
 -77.00 -45.00     0.81559    
 -77.00 -44.00     0.96016    
 -77.00 -43.00      1.0187    
 -77.00 -42.00     0.97859    
 -77.00 -41.00     0.85482    
 -77.00 -40.00     0.68635    
 -77.00 -39.00     0.52490    
 -77.00 -38.00     0.41936    
 -77.00 -37.00     0.40048    
 -77.00 -36.00     0.47114    
 -77.00 -35.00     0.60537    
 -77.00 -34.00     0.75660    
 -77.00 -33.00     0.87268    
 -77.00 -32.00     0.91287    
 -77.00 -31.00     0.86124    
 -77.00 -30.00     0.73193    
 -77.00 -29.00     0.56452    
 -77.00 -28.00     0.41077    
 -77.00 -27.00     0.31711    
 -77.00 -26.00     0.30852    
 -77.00 -25.00     0.37943    
 -77.00 -24.00     0.49471    
 -77.00 -23.00     0.60069    
 -77.00 -22.00     0.64293    
 -77.00 -21.00     0.58491    
 -77.00 -20.00     0.42154    
 -77.00 -19.00     0.18290    
 -77.00 -18.00    -0.73385E-01
 -77.00 -17.00    -0.27890    
 -77.00 -16.00    -0.37529    
 -77.00 -15.00    -0.33256    
 -77.00 -14.00    -0.15911    
 -77.00 -13.00     0.99970E-01
 -77.00 -12.00     0.37574    
 -77.00 -11.00     0.59572    
 -77.00 -10.00     0.70527    
 -77.00  -9.00     0.68349    
 -77.00  -8.00     0.54879    
 -77.00  -7.00     0.35248    
 -77.00  -6.00     0.16243    
 -77.00  -5.00     0.42033E-01
 -77.00  -4.00     0.30988E-01
 -77.00  -3.00     0.13375    
 -77.00  -2.00     0.31910    
 -77.00  -1.00     0.53078    
 -77.00   0.00     0.70554    
 -77.00   1.00     0.79301    
 -77.00   2.00     0.77108    
 -77.00   3.00     0.65235    
 -77.00   4.00     0.47961    
 -77.00   5.00     0.31227    
 -77.00   6.00     0.20796    
 -77.00   7.00     0.20500    
 -77.00   8.00     0.31120    
 -77.00   9.00     0.50191    
 -77.00  10.00     0.72785    
 -77.00  11.00     0.92988    
 -77.00  12.00      1.0561    
 -77.00  13.00      1.0764    
 -77.00  14.00     0.98979    
 -77.00  15.00     0.82325    
 -77.00  16.00     0.62286    
 -77.00  17.00     0.43978    
 -77.00  18.00     0.31585    
 -77.00  19.00     0.27275    
 -77.00  20.00     0.30757    
 -77.00  21.00     0.39556    
 -77.00  22.00     0.49879    
 -77.00  23.00     0.57769    
 -77.00  24.00     0.60220    
 -77.00  25.00     0.55936    
 -77.00  26.00     0.45564    
 -77.00  27.00     0.31393    
 -77.00  28.00     0.16649    
 -77.00  29.00     0.46137E-01
 -77.00  30.00    -0.21865E-01
 -77.00  31.00    -0.25237E-01
 -77.00  32.00     0.33537E-01
 -77.00  33.00     0.13903    
 -77.00  34.00     0.26738    
 -77.00  35.00     0.39205    
 -77.00  36.00     0.48935    
 -77.00  37.00     0.54276    
 -77.00  38.00     0.54520    
 -77.00  39.00     0.49934    
 -77.00  40.00     0.41611    
 -77.00  41.00     0.31211    
 -77.00  42.00     0.20620    
 -77.00  43.00     0.11619    
 -77.00  44.00     0.55723E-01
 -77.00  45.00     0.32045E-01
 -77.00  46.00     0.44921E-01
 -77.00  47.00     0.86611E-01
 -77.00  48.00     0.14331    
 -77.00  49.00     0.19793    
 -77.00  50.00     0.23301    
 -77.00  51.00     0.23424    
 -77.00  52.00     0.19318    
 -77.00  53.00     0.10884    
 -77.00  54.00    -0.12096E-01
 -77.00  55.00    -0.15630    
 -77.00  56.00    -0.30679    
 -77.00  57.00    -0.44534    
 -77.00  58.00    -0.55583    
 -77.00  59.00    -0.62645    
 -77.00  60.00    -0.65101    
 -77.00  61.00    -0.62968    
 -77.00  62.00    -0.56842    
 -77.00  63.00    -0.47802    
 -77.00  64.00    -0.37203    
 -77.00  65.00    -0.26539    
 -77.00  66.00    -0.17213    
 -77.00  67.00    -0.10350    
 -77.00  68.00    -0.65948E-01
 -77.00  69.00    -0.60104E-01
 -77.00  70.00    -0.80510E-01
 -77.00  71.00    -0.11670    
 -77.00  72.00    -0.15466    
 -77.00  73.00    -0.18001    
 -77.00  74.00    -0.18126    
 -77.00  75.00    -0.15394    
 -77.00  76.00    -0.99049E-01
 -77.00  77.00    -0.27387E-01
 -77.00  78.00     0.47671E-01
 -77.00  79.00     0.11153    
 -77.00  80.00     0.15293    
 -77.00  81.00     0.16732    
 -77.00  82.00     0.15778    
 -77.00  83.00     0.13456    
 -77.00  84.00     0.11144    
 -77.00  85.00     0.10215    
 -77.00  86.00     0.11051    
 -77.00  87.00     0.13509    
 -77.00  88.00     0.16419    
 -77.00  89.00     0.18233    
 -76.00 -89.00     0.52032    
 -76.00 -88.00     0.43571    
 -76.00 -87.00     0.37387    
 -76.00 -86.00     0.33907    
 -76.00 -85.00     0.32589    
 -76.00 -84.00     0.32361    
 -76.00 -83.00     0.32041    
 -76.00 -82.00     0.30584    
 -76.00 -81.00     0.27312    
 -76.00 -80.00     0.22086    
 -76.00 -79.00     0.15327    
 -76.00 -78.00     0.73732E-01
 -76.00 -77.00    -0.14148E-01
 -76.00 -76.00    -0.10485    
 -76.00 -75.00    -0.19381    
 -76.00 -74.00    -0.27257    
 -76.00 -73.00    -0.32992    
 -76.00 -72.00    -0.35251    
 -76.00 -71.00    -0.32764    
 -76.00 -70.00    -0.24818    
 -76.00 -69.00    -0.11690    
 -76.00 -68.00     0.52953E-01
 -76.00 -67.00     0.23732    
 -76.00 -66.00     0.40700    
 -76.00 -65.00     0.53433    
 -76.00 -64.00     0.59991    
 -76.00 -63.00     0.59965    
 -76.00 -62.00     0.54469    
 -76.00 -61.00     0.45883    
 -76.00 -60.00     0.37049    
 -76.00 -59.00     0.30467    
 -76.00 -58.00     0.27442    
 -76.00 -57.00     0.27773    
 -76.00 -56.00     0.29907    
 -76.00 -55.00     0.31589    
 -76.00 -54.00     0.30827    
 -76.00 -53.00     0.26732    
 -76.00 -52.00     0.20065    
 -76.00 -51.00     0.13084    
 -76.00 -50.00     0.89167E-01
 -76.00 -49.00     0.10433    
 -76.00 -48.00     0.19177    
 -76.00 -47.00     0.34613    
 -76.00 -46.00     0.54039    
 -76.00 -45.00     0.73226    
 -76.00 -44.00     0.87657    
 -76.00 -43.00     0.93923    
 -76.00 -42.00     0.90869    
 -76.00 -41.00     0.80070    
 -76.00 -40.00     0.65441    
 -76.00 -39.00     0.52090    
 -76.00 -38.00     0.44719    
 -76.00 -37.00     0.46117    
 -76.00 -36.00     0.56218    
 -76.00 -35.00     0.72055    
 -76.00 -34.00     0.88653    
 -76.00 -33.00      1.0059    
 -76.00 -32.00      1.0373    
 -76.00 -31.00     0.96574    
 -76.00 -30.00     0.80776    
 -76.00 -29.00     0.60627    
 -76.00 -28.00     0.41688    
 -76.00 -27.00     0.28988    
 -76.00 -26.00     0.25377    
 -76.00 -25.00     0.30591    
 -76.00 -24.00     0.41337    
 -76.00 -23.00     0.52394    
 -76.00 -22.00     0.58375    
 -76.00 -21.00     0.55593    
 -76.00 -20.00     0.43390    
 -76.00 -19.00     0.24505    
 -76.00 -18.00     0.43131E-01
 -76.00 -17.00    -0.10827    
 -76.00 -16.00    -0.15606    
 -76.00 -15.00    -0.75264E-01
 -76.00 -14.00     0.12173    
 -76.00 -13.00     0.38751    
 -76.00 -12.00     0.65297    
 -76.00 -11.00     0.84760    
 -76.00 -10.00     0.92048    
 -76.00  -9.00     0.85541    
 -76.00  -8.00     0.67562    
 -76.00  -7.00     0.43639    
 -76.00  -6.00     0.20818    
 -76.00  -5.00     0.55316E-01
 -76.00  -4.00     0.17014E-01
 -76.00  -3.00     0.96393E-01
 -76.00  -2.00     0.26079    
 -76.00  -1.00     0.45299    
 -76.00   0.00     0.60977    
 -76.00   1.00     0.68172    
 -76.00   2.00     0.64836    
 -76.00   3.00     0.52392    
 -76.00   4.00     0.35220    
 -76.00   5.00     0.19250    
 -76.00   6.00     0.10094    
 -76.00   7.00     0.11322    
 -76.00   8.00     0.23385    
 -76.00   9.00     0.43508    
 -76.00  10.00     0.66537    
 -76.00  11.00     0.86479    
 -76.00  12.00     0.98236    
 -76.00  13.00     0.99026    
 -76.00  14.00     0.89078    
 -76.00  15.00     0.71442    
 -76.00  16.00     0.51003    
 -76.00  17.00     0.33038    
 -76.00  18.00     0.21738    
 -76.00  19.00     0.19139    
 -76.00  20.00     0.24716    
 -76.00  21.00     0.35728    
 -76.00  22.00     0.48140    
 -76.00  23.00     0.57840    
 -76.00  24.00     0.61771    
 -76.00  25.00     0.58687    
 -76.00  26.00     0.49352    
 -76.00  27.00     0.36187    
 -76.00  28.00     0.22513    
 -76.00  29.00     0.11631    
 -76.00  30.00     0.59988E-01
 -76.00  31.00     0.66980E-01
 -76.00  32.00     0.13301    
 -76.00  33.00     0.24104    
 -76.00  34.00     0.36634    
 -76.00  35.00     0.48253    
 -76.00  36.00     0.56732    
 -76.00  37.00     0.60645    
 -76.00  38.00     0.59555    
 -76.00  39.00     0.53980    
 -76.00  40.00     0.45180    
 -76.00  41.00     0.34852    
 -76.00  42.00     0.24778    
 -76.00  43.00     0.16526    
 -76.00  44.00     0.11180    
 -76.00  45.00     0.92015E-01
 -76.00  46.00     0.10380    
 -76.00  47.00     0.13900    
 -76.00  48.00     0.18483    
 -76.00  49.00     0.22643    
 -76.00  50.00     0.24936    
 -76.00  51.00     0.24219    
 -76.00  52.00     0.19858    
 -76.00  53.00     0.11816    
 -76.00  54.00     0.67639E-02
 -76.00  55.00    -0.12458    
 -76.00  56.00    -0.26193    
 -76.00  57.00    -0.39018    
 -76.00  58.00    -0.49563    
 -76.00  59.00    -0.56767    
 -76.00  60.00    -0.59977    
 -76.00  61.00    -0.59058    
 -76.00  62.00    -0.54371    
 -76.00  63.00    -0.46739    
 -76.00  64.00    -0.37309    
 -76.00  65.00    -0.27455    
 -76.00  66.00    -0.18572    
 -76.00  67.00    -0.11855    
 -76.00  68.00    -0.80848E-01
 -76.00  69.00    -0.74482E-01
 -76.00  70.00    -0.95035E-01
 -76.00  71.00    -0.13238    
 -76.00  72.00    -0.17217    
 -76.00  73.00    -0.19921    
 -76.00  74.00    -0.20114    
 -76.00  75.00    -0.17273    
 -76.00  76.00    -0.11493    
 -76.00  77.00    -0.38672E-01
 -76.00  78.00     0.41833E-01
 -76.00  79.00     0.11108    
 -76.00  80.00     0.15683    
 -76.00  81.00     0.17389    
 -76.00  82.00     0.16513    
 -76.00  83.00     0.14117    
 -76.00  84.00     0.11636    
 -76.00  85.00     0.10517    
 -76.00  86.00     0.11181    
 -76.00  87.00     0.13522    
 -76.00  88.00     0.16405    
 -76.00  89.00     0.18222    
 -75.00 -89.00     0.51813    
 -75.00 -88.00     0.43196    
 -75.00 -87.00     0.36953    
 -75.00 -86.00     0.33506    
 -75.00 -85.00     0.32316    
 -75.00 -84.00     0.32321    
 -75.00 -83.00     0.32288    
 -75.00 -82.00     0.31166    
 -75.00 -81.00     0.28251    
 -75.00 -80.00     0.23367    
 -75.00 -79.00     0.16889    
 -75.00 -78.00     0.91032E-01
 -75.00 -77.00     0.33865E-02
 -75.00 -76.00    -0.88877E-01
 -75.00 -75.00    -0.18128    
 -75.00 -74.00    -0.26514    
 -75.00 -73.00    -0.32865    
 -75.00 -72.00    -0.35795    
 -75.00 -71.00    -0.33947    
 -75.00 -70.00    -0.26558    
 -75.00 -69.00    -0.13864    
 -75.00 -68.00     0.28387E-01
 -75.00 -67.00     0.21156    
 -75.00 -66.00     0.38163    
 -75.00 -65.00     0.51115    
 -75.00 -64.00     0.58072    
 -75.00 -63.00     0.58618    
 -75.00 -62.00     0.53870    
 -75.00 -61.00     0.46185    
 -75.00 -60.00     0.38355    
 -75.00 -59.00     0.32786    
 -75.00 -58.00     0.30677    
 -75.00 -57.00     0.31712    
 -75.00 -56.00     0.34232    
 -75.00 -55.00     0.35904    
 -75.00 -54.00     0.34703    
 -75.00 -53.00     0.29760    
 -75.00 -52.00     0.21886    
 -75.00 -51.00     0.13422    
 -75.00 -50.00     0.75932E-01
 -75.00 -49.00     0.73719E-01
 -75.00 -48.00     0.14411    
 -75.00 -47.00     0.28289    
 -75.00 -46.00     0.46432    
 -75.00 -45.00     0.64760    
 -75.00 -44.00     0.78905    
 -75.00 -43.00     0.85594    
 -75.00 -42.00     0.83761    
 -75.00 -41.00     0.74991    
 -75.00 -40.00     0.63109    
 -75.00 -39.00     0.53012    
 -75.00 -38.00     0.49095    
 -75.00 -37.00     0.53774    
 -75.00 -36.00     0.66602    
 -75.00 -35.00     0.84278    
 -75.00 -34.00      1.0160    
 -75.00 -33.00      1.1304    
 -75.00 -32.00      1.1453    
 -75.00 -31.00      1.0475    
 -75.00 -30.00     0.85626    
 -75.00 -29.00     0.61796    
 -75.00 -28.00     0.39185    
 -75.00 -27.00     0.23178    
 -75.00 -26.00     0.16958    
 -75.00 -25.00     0.20551    
 -75.00 -24.00     0.30900    
 -75.00 -23.00     0.42944    
 -75.00 -22.00     0.51352    
 -75.00 -21.00     0.52360    
 -75.00 -20.00     0.45082    
 -75.00 -19.00     0.31875    
 -75.00 -18.00     0.17605    
 -75.00 -17.00     0.80547E-01
 -75.00 -16.00     0.79725E-01
 -75.00 -15.00     0.19396    
 -75.00 -14.00     0.40806    
 -75.00 -13.00     0.67407    
 -75.00 -12.00     0.92453    
 -75.00 -11.00      1.0923    
 -75.00 -10.00      1.1308    
 -75.00  -9.00      1.0281    
 -75.00  -8.00     0.81080    
 -75.00  -7.00     0.53614    
 -75.00  -6.00     0.27514    
 -75.00  -5.00     0.91675E-01
 -75.00  -4.00     0.24146E-01
 -75.00  -3.00     0.75278E-01
 -75.00  -2.00     0.21294    
 -75.00  -1.00     0.38155    
 -75.00   0.00     0.52022    
 -75.00   1.00     0.58195    
 -75.00   2.00     0.54784    
 -75.00   3.00     0.43211    
 -75.00   4.00     0.27664    
 -75.00   5.00     0.13699    
 -75.00   6.00     0.64465E-01
 -75.00   7.00     0.89879E-01
 -75.00   8.00     0.21402    
 -75.00   9.00     0.40744    
 -75.00  10.00     0.61954    
 -75.00  11.00     0.79375    
 -75.00  12.00     0.88419    
 -75.00  13.00     0.86868    
 -75.00  14.00     0.75452    
 -75.00  15.00     0.57539    
 -75.00  16.00     0.38097    
 -75.00  17.00     0.22235    
 -75.00  18.00     0.13784    
 -75.00  19.00     0.14322    
 -75.00  20.00     0.22880    
 -75.00  21.00     0.36381    
 -75.00  22.00     0.50635    
 -75.00  23.00     0.61560    
 -75.00  24.00     0.66292    
 -75.00  25.00     0.63857    
 -75.00  26.00     0.55292    
 -75.00  27.00     0.43202    
 -75.00  28.00     0.30953    
 -75.00  29.00     0.21730    
 -75.00  30.00     0.17746    
 -75.00  31.00     0.19769    
 -75.00  32.00     0.27067    
 -75.00  33.00     0.37723    
 -75.00  34.00     0.49197    
 -75.00  35.00     0.58961    
 -75.00  36.00     0.65051    
 -75.00  37.00     0.66414    
 -75.00  38.00     0.63011    
 -75.00  39.00     0.55703    
 -75.00  40.00     0.45961    
 -75.00  41.00     0.35520    
 -75.00  42.00     0.26026    
 -75.00  43.00     0.18762    
 -75.00  44.00     0.14464    
 -75.00  45.00     0.13259    
 -75.00  46.00     0.14692    
 -75.00  47.00     0.17863    
 -75.00  48.00     0.21580    
 -75.00  49.00     0.24579    
 -75.00  50.00     0.25738    
 -75.00  51.00     0.24234    
 -75.00  52.00     0.19670    
 -75.00  53.00     0.12109    
 -75.00  54.00     0.20689E-01
 -75.00  55.00    -0.95708E-01
 -75.00  56.00    -0.21726    
 -75.00  57.00    -0.33218    
 -75.00  58.00    -0.42946    
 -75.00  59.00    -0.50000    
 -75.00  60.00    -0.53723    
 -75.00  61.00    -0.53851    
 -75.00  62.00    -0.50511    
 -75.00  63.00    -0.44273    
 -75.00  64.00    -0.36061    
 -75.00  65.00    -0.27108    
 -75.00  66.00    -0.18783    
 -75.00  67.00    -0.12332    
 -75.00  68.00    -0.86597E-01
 -75.00  69.00    -0.80758E-01
 -75.00  70.00    -0.10240    
 -75.00  71.00    -0.14180    
 -75.00  72.00    -0.18426    
 -75.00  73.00    -0.21386    
 -75.00  74.00    -0.21733    
 -75.00  75.00    -0.18867    
 -75.00  76.00    -0.12876    
 -75.00  77.00    -0.48601E-01
 -75.00  78.00     0.36805E-01
 -75.00  79.00     0.11105    
 -75.00  80.00     0.16089    
 -75.00  81.00     0.18049    
 -75.00  82.00     0.17247    
 -75.00  83.00     0.14781    
 -75.00  84.00     0.12137    
 -75.00  85.00     0.10826    
 -75.00  86.00     0.11318    
 -75.00  87.00     0.13541    
 -75.00  88.00     0.16393    
 -75.00  89.00     0.18211    
 -74.00 -89.00     0.51595    
 -74.00 -88.00     0.42823    
 -74.00 -87.00     0.36514    
 -74.00 -86.00     0.33093    
 -74.00 -85.00     0.32024    
 -74.00 -84.00     0.32258    
 -74.00 -83.00     0.32510    
 -74.00 -82.00     0.31721    
 -74.00 -81.00     0.29166    
 -74.00 -80.00     0.24635    
 -74.00 -79.00     0.18461    
 -74.00 -78.00     0.10878    
 -74.00 -77.00     0.21909E-01
 -74.00 -76.00    -0.71238E-01
 -74.00 -75.00    -0.16631    
 -74.00 -74.00    -0.25449    
 -74.00 -73.00    -0.32356    
 -74.00 -72.00    -0.35930    
 -74.00 -71.00    -0.34747    
 -74.00 -70.00    -0.27995    
 -74.00 -69.00    -0.15863    
 -74.00 -68.00     0.39622E-02
 -74.00 -67.00     0.18425    
 -74.00 -66.00     0.35320    
 -74.00 -65.00     0.48380    
 -74.00 -64.00     0.55687    
 -74.00 -63.00     0.56826    
 -74.00 -62.00     0.52911    
 -74.00 -61.00     0.46264    
 -74.00 -60.00     0.39622    
 -74.00 -59.00     0.35284    
 -74.00 -58.00     0.34348    
 -74.00 -57.00     0.36380    
 -74.00 -56.00     0.39617    
 -74.00 -55.00     0.41644    
 -74.00 -54.00     0.40379    
 -74.00 -53.00     0.34937    
 -74.00 -52.00     0.26127    
 -74.00 -51.00     0.16329    
 -74.00 -50.00     0.88256E-01
 -74.00 -49.00     0.66863E-01
 -74.00 -48.00     0.11697    
 -74.00 -47.00     0.23608    
 -74.00 -46.00     0.40058    
 -74.00 -45.00     0.57198    
 -74.00 -44.00     0.70877    
 -74.00 -43.00     0.77981    
 -74.00 -42.00     0.77511    
 -74.00 -41.00     0.70990    
 -74.00 -40.00     0.62047    
 -74.00 -39.00     0.55260    
 -74.00 -38.00     0.54634    
 -74.00 -37.00     0.62179    
 -74.00 -36.00     0.77092    
 -74.00 -35.00     0.95829    
 -74.00 -34.00      1.1308    
 -74.00 -33.00      1.2336    
 -74.00 -32.00      1.2274    
 -74.00 -31.00      1.1016    
 -74.00 -30.00     0.87831    
 -74.00 -29.00     0.60665    
 -74.00 -28.00     0.34870    
 -74.00 -27.00     0.16094    
 -74.00 -26.00     0.77725E-01
 -74.00 -25.00     0.10177    
 -74.00 -24.00     0.20471    
 -74.00 -23.00     0.33756    
 -74.00 -22.00     0.44766    
 -74.00 -21.00     0.49649    
 -74.00 -20.00     0.47255    
 -74.00 -19.00     0.39500    
 -74.00 -18.00     0.30686    
 -74.00 -17.00     0.25994    
 -74.00 -16.00     0.29634    
 -74.00 -15.00     0.43277    
 -74.00 -14.00     0.65282    
 -74.00 -13.00     0.90986    
 -74.00 -12.00      1.1399    
 -74.00 -11.00      1.2805    
 -74.00 -10.00      1.2895    
 -74.00  -9.00      1.1586    
 -74.00  -8.00     0.91580    
 -74.00  -7.00     0.61804    
 -74.00  -6.00     0.33450    
 -74.00  -5.00     0.12686    
 -74.00  -4.00     0.32117E-01
 -74.00  -3.00     0.53295E-01
 -74.00  -2.00     0.16060    
 -74.00  -1.00     0.30244    
 -74.00   0.00     0.42256    
 -74.00   1.00     0.47782    
 -74.00   2.00     0.45107    
 -74.00   3.00     0.35527    
 -74.00   4.00     0.22796    
 -74.00   5.00     0.11800    
 -74.00   6.00     0.69166E-01
 -74.00   7.00     0.10571    
 -74.00   8.00     0.22452    
 -74.00   9.00     0.39599    
 -74.00  10.00     0.57328    
 -74.00  11.00     0.70676    
 -74.00  12.00     0.75902    
 -74.00  13.00     0.71604    
 -74.00  14.00     0.59101    
 -74.00  15.00     0.42007    
 -74.00  16.00     0.25142    
 -74.00  17.00     0.13132    
 -74.00  18.00     0.91193E-01
 -74.00  19.00     0.13951    
 -74.00  20.00     0.26057    
 -74.00  21.00     0.42014    
 -74.00  22.00     0.57585    
 -74.00  23.00     0.68926    
 -74.00  24.00     0.73593    
 -74.00  25.00     0.71092    
 -74.00  26.00     0.62862    
 -74.00  27.00     0.51730    
 -74.00  28.00     0.41048    
 -74.00  29.00     0.33768    
 -74.00  30.00     0.31706    
 -74.00  31.00     0.35179    
 -74.00  32.00     0.43053    
 -74.00  33.00     0.53164    
 -74.00  34.00     0.62930    
 -74.00  35.00     0.70007    
 -74.00  36.00     0.72798    
 -74.00  37.00     0.70725    
 -74.00  38.00     0.64242    
 -74.00  39.00     0.54611    
 -74.00  40.00     0.43548    
 -74.00  41.00     0.32826    
 -74.00  42.00     0.23929    
 -74.00  43.00     0.17822    
 -74.00  44.00     0.14847    
 -74.00  45.00     0.14748    
 -74.00  46.00     0.16782    
 -74.00  47.00     0.19932    
 -74.00  48.00     0.23068    
 -74.00  49.00     0.25134    
 -74.00  50.00     0.25331    
 -74.00  51.00     0.23169    
 -74.00  52.00     0.18513    
 -74.00  53.00     0.11551    
 -74.00  54.00     0.27600E-01
 -74.00  55.00    -0.71886E-01
 -74.00  56.00    -0.17515    
 -74.00  57.00    -0.27381    
 -74.00  58.00    -0.35977    
 -74.00  59.00    -0.42571    
 -74.00  60.00    -0.46535    
 -74.00  61.00    -0.47498    
 -74.00  62.00    -0.45370    
 -74.00  63.00    -0.40467    
 -74.00  64.00    -0.33483    
 -74.00  65.00    -0.25498    
 -74.00  66.00    -0.17826    
 -74.00  67.00    -0.11754    
 -74.00  68.00    -0.82909E-01
 -74.00  69.00    -0.78656E-01
 -74.00  70.00    -0.10234    
 -74.00  71.00    -0.14471    
 -74.00  72.00    -0.19068    
 -74.00  73.00    -0.22368    
 -74.00  74.00    -0.22957    
 -74.00  75.00    -0.20152    
 -74.00  76.00    -0.14033    
 -74.00  77.00    -0.56997E-01
 -74.00  78.00     0.32715E-01
 -74.00  79.00     0.11150    
 -74.00  80.00     0.16515    
 -74.00  81.00     0.18712    
 -74.00  82.00     0.17979    
 -74.00  83.00     0.15447    
 -74.00  84.00     0.12645    
 -74.00  85.00     0.11142    
 -74.00  86.00     0.11464    
 -74.00  87.00     0.13566    
 -74.00  88.00     0.16385    
 -74.00  89.00     0.18201    
 -73.00 -89.00     0.51380    
 -73.00 -88.00     0.42449    
 -73.00 -87.00     0.36072    
 -73.00 -86.00     0.32669    
 -73.00 -85.00     0.31714    
 -73.00 -84.00     0.32169    
 -73.00 -83.00     0.32705    
 -73.00 -82.00     0.32245    
 -73.00 -81.00     0.30054    
 -73.00 -80.00     0.25886    
 -73.00 -79.00     0.20035    
 -73.00 -78.00     0.12690    
 -73.00 -77.00     0.41329E-01
 -73.00 -76.00    -0.52014E-01
 -73.00 -75.00    -0.14894    
 -73.00 -74.00    -0.24063    
 -73.00 -73.00    -0.31464    
 -73.00 -72.00    -0.35647    
 -73.00 -71.00    -0.35152    
 -73.00 -70.00    -0.29112    
 -73.00 -69.00    -0.17668    
 -73.00 -68.00    -0.20193E-01
 -73.00 -67.00     0.15539    
 -73.00 -66.00     0.32154    
 -73.00 -65.00     0.45183    
 -73.00 -64.00     0.52751    
 -73.00 -63.00     0.54452    
 -73.00 -62.00     0.51396    
 -73.00 -61.00     0.45860    
 -73.00 -60.00     0.40518    
 -73.00 -59.00     0.37565    
 -73.00 -58.00     0.37993    
 -73.00 -57.00     0.41261    
 -73.00 -56.00     0.45508    
 -73.00 -55.00     0.48231    
 -73.00 -54.00     0.47278    
 -73.00 -53.00     0.41715    
 -73.00 -52.00     0.32307    
 -73.00 -51.00     0.21427    
 -73.00 -50.00     0.12382    
 -73.00 -49.00     0.83250E-01
 -73.00 -48.00     0.11190    
 -73.00 -47.00     0.20941    
 -73.00 -46.00     0.35484    
 -73.00 -45.00     0.51265    
 -73.00 -44.00     0.64382    
 -73.00 -43.00     0.71886    
 -73.00 -42.00     0.72808    
 -73.00 -41.00     0.68539    
 -73.00 -40.00     0.62422    
 -73.00 -39.00     0.58647    
 -73.00 -38.00     0.60785    
 -73.00 -37.00     0.70460    
 -73.00 -36.00     0.86592    
 -73.00 -35.00      1.0552    
 -73.00 -34.00      1.2197    
 -73.00 -33.00      1.3064    
 -73.00 -32.00      1.2785    
 -73.00 -31.00      1.1281    
 -73.00 -30.00     0.87955    
 -73.00 -29.00     0.58386    
 -73.00 -28.00     0.30434    
 -73.00 -27.00     0.98574E-01
 -73.00 -26.00     0.21951E-02
 -73.00 -25.00     0.19527E-01
 -73.00 -24.00     0.12408    
 -73.00 -23.00     0.26859    
 -73.00 -22.00     0.40126    
 -73.00 -21.00     0.48296    
 -73.00 -20.00     0.49967    
 -73.00 -19.00     0.46619    
 -73.00 -18.00     0.41992    
 -73.00 -17.00     0.40686    
 -73.00 -16.00     0.46446    
 -73.00 -15.00     0.60697    
 -73.00 -14.00     0.81842    
 -73.00 -13.00      1.0554    
 -73.00 -12.00      1.2589    
 -73.00 -11.00      1.3723    
 -73.00 -10.00      1.3581    
 -73.00  -9.00      1.2102    
 -73.00  -8.00     0.95648    
 -73.00  -7.00     0.65081    
 -73.00  -6.00     0.35814    
 -73.00  -5.00     0.13614    
 -73.00  -4.00     0.19606E-01
 -73.00  -3.00     0.12250E-01
 -73.00  -2.00     0.88044E-01
 -73.00  -1.00     0.20140    
 -73.00   0.00     0.30269    
 -73.00   1.00     0.35397    
 -73.00   2.00     0.34018    
 -73.00   3.00     0.27220    
 -73.00   4.00     0.18148    
 -73.00   5.00     0.10808    
 -73.00   6.00     0.86328E-01
 -73.00   7.00     0.13287    
 -73.00   8.00     0.24080    
 -73.00   9.00     0.38175    
 -73.00  10.00     0.51494    
 -73.00  11.00     0.60030    
 -73.00  12.00     0.61126    
 -73.00  13.00     0.54331    
 -73.00  14.00     0.41565    
 -73.00  15.00     0.26561    
 -73.00  16.00     0.13767    
 -73.00  17.00     0.70511E-01
 -73.00  18.00     0.86062E-01
 -73.00  19.00     0.18368    
 -73.00  20.00     0.34093    
 -73.00  21.00     0.52057    
 -73.00  22.00     0.68124    
 -73.00  23.00     0.78884    
 -73.00  24.00     0.82519    
 -73.00  25.00     0.79177    
 -73.00  26.00     0.70785    
 -73.00  27.00     0.60399    
 -73.00  28.00     0.51294    
 -73.00  29.00     0.46079    
 -73.00  30.00     0.46059    
 -73.00  31.00     0.50999    
 -73.00  32.00     0.59310    
 -73.00  33.00     0.68565    
 -73.00  34.00     0.76174    
 -73.00  35.00     0.80029    
 -73.00  36.00     0.78962    
 -73.00  37.00     0.72932    
 -73.00  38.00     0.62924    
 -73.00  39.00     0.50628    
 -73.00  40.00     0.38014    
 -73.00  41.00     0.26891    
 -73.00  42.00     0.18580    
 -73.00  43.00     0.13714    
 -73.00  44.00     0.12229    
 -73.00  45.00     0.13470    
 -73.00  46.00     0.16391    
 -73.00  47.00     0.19824    
 -73.00  48.00     0.22675    
 -73.00  49.00     0.24078    
 -73.00  50.00     0.23537    
 -73.00  51.00     0.20892    
 -73.00  52.00     0.16278    
 -73.00  53.00     0.10034    
 -73.00  54.00     0.26199E-01
 -73.00  55.00    -0.54763E-01
 -73.00  56.00    -0.13763    
 -73.00  57.00    -0.21744    
 -73.00  58.00    -0.28912    
 -73.00  59.00    -0.34738    
 -73.00  60.00    -0.38653    
 -73.00  61.00    -0.40207    
 -73.00  62.00    -0.39115    
 -73.00  63.00    -0.35445    
 -73.00  64.00    -0.29664    
 -73.00  65.00    -0.22679    
 -73.00  66.00    -0.15734    
 -73.00  67.00    -0.10140    
 -73.00  68.00    -0.69886E-01
 -73.00  69.00    -0.68220E-01
 -73.00  70.00    -0.94858E-01
 -73.00  71.00    -0.14104    
 -73.00  72.00    -0.19134    
 -73.00  73.00    -0.22856    
 -73.00  74.00    -0.23769    
 -73.00  75.00    -0.21110    
 -73.00  76.00    -0.14946    
 -73.00  77.00    -0.63715E-01
 -73.00  78.00     0.29672E-01
 -73.00  79.00     0.11251    
 -73.00  80.00     0.16962    
 -73.00  81.00     0.19377    
 -73.00  82.00     0.18707    
 -73.00  83.00     0.16112    
 -73.00  84.00     0.13157    
 -73.00  85.00     0.11462    
 -73.00  86.00     0.11616    
 -73.00  87.00     0.13596    
 -73.00  88.00     0.16381    
 -73.00  89.00     0.18191    
 -72.00 -89.00     0.51166    
 -72.00 -88.00     0.42076    
 -72.00 -87.00     0.35624    
 -72.00 -86.00     0.32232    
 -72.00 -85.00     0.31385    
 -72.00 -84.00     0.32055    
 -72.00 -83.00     0.32872    
 -72.00 -82.00     0.32736    
 -72.00 -81.00     0.30909    
 -72.00 -80.00     0.27111    
 -72.00 -79.00     0.21604    
 -72.00 -78.00     0.14529    
 -72.00 -77.00     0.61534E-01
 -72.00 -76.00    -0.31322E-01
 -72.00 -75.00    -0.12928    
 -72.00 -74.00    -0.22366    
 -72.00 -73.00    -0.30190    
 -72.00 -72.00    -0.34945    
 -72.00 -71.00    -0.35153    
 -72.00 -70.00    -0.29897    
 -72.00 -69.00    -0.19265    
 -72.00 -68.00    -0.43924E-01
 -72.00 -67.00     0.12507    
 -72.00 -66.00     0.28659    
 -72.00 -65.00     0.41492    
 -72.00 -64.00     0.49193    
 -72.00 -63.00     0.51375    
 -72.00 -62.00     0.49143    
 -72.00 -61.00     0.44723    
 -72.00 -60.00     0.40718    
 -72.00 -59.00     0.39217    
 -72.00 -58.00     0.41121    
 -72.00 -57.00     0.45785    
 -72.00 -56.00     0.51259    
 -72.00 -55.00     0.54963    
 -72.00 -54.00     0.54658    
 -72.00 -53.00     0.49342    
 -72.00 -52.00     0.39699    
 -72.00 -51.00     0.28060    
 -72.00 -50.00     0.17720    
 -72.00 -49.00     0.11902    
 -72.00 -48.00     0.12690    
 -72.00 -47.00     0.20288    
 -72.00 -46.00     0.32902    
 -72.00 -45.00     0.47301    
 -72.00 -44.00     0.59847    
 -72.00 -43.00     0.67742    
 -72.00 -42.00     0.69998    
 -72.00 -41.00     0.67812    
 -72.00 -40.00     0.64177    
 -72.00 -39.00     0.62849    
 -72.00 -38.00     0.66971    
 -72.00 -37.00     0.77838    
 -72.00 -36.00     0.94211    
 -72.00 -35.00      1.1246    
 -72.00 -34.00      1.2752    
 -72.00 -33.00      1.3440    
 -72.00 -32.00      1.2974    
 -72.00 -31.00      1.1301    
 -72.00 -30.00     0.86792    
 -72.00 -29.00     0.56198    
 -72.00 -28.00     0.27498    
 -72.00 -27.00     0.63666E-01
 -72.00 -26.00    -0.36646E-01
 -72.00 -25.00    -0.21015E-01
 -72.00 -24.00     0.85582E-01
 -72.00 -23.00     0.23774    
 -72.00 -22.00     0.38508    
 -72.00 -21.00     0.48848    
 -72.00 -20.00     0.53200    
 -72.00 -19.00     0.52657    
 -72.00 -18.00     0.50445    
 -72.00 -17.00     0.50647    
 -72.00 -16.00     0.56624    
 -72.00 -15.00     0.69682    
 -72.00 -14.00     0.88415    
 -72.00 -13.00      1.0896    
 -72.00 -12.00      1.2607    
 -72.00 -11.00      1.3471    
 -72.00 -10.00      1.3160    
 -72.00  -9.00      1.1627    
 -72.00  -8.00     0.91273    
 -72.00  -7.00     0.61490    
 -72.00  -6.00     0.32765    
 -72.00  -5.00     0.10289    
 -72.00  -4.00    -0.27673E-01
 -72.00  -3.00    -0.59502E-01
 -72.00  -2.00    -0.13882E-01
 -72.00  -1.00     0.71096E-01
 -72.00   0.00     0.15392    
 -72.00   1.00     0.20301    
 -72.00   2.00     0.20572    
 -72.00   3.00     0.17048    
 -72.00   4.00     0.12164    
 -72.00   5.00     0.89189E-01
 -72.00   6.00     0.97015E-01
 -72.00   7.00     0.15370    
 -72.00   8.00     0.24897    
 -72.00   9.00     0.35675    
 -72.00  10.00     0.44391    
 -72.00  11.00     0.48151    
 -72.00  12.00     0.45489    
 -72.00  13.00     0.36932    
 -72.00  14.00     0.24932    
 -72.00  15.00     0.13187    
 -72.00  16.00     0.55688E-01
 -72.00  17.00     0.49848E-01
 -72.00  18.00     0.12524    
 -72.00  19.00     0.27137    
 -72.00  20.00     0.45936    
 -72.00  21.00     0.65002    
 -72.00  22.00     0.80472    
 -72.00  23.00     0.89549    
 -72.00  24.00     0.91197    
 -72.00  25.00     0.86301    
 -72.00  26.00     0.77309    
 -72.00  27.00     0.67468    
 -72.00  28.00     0.59900    
 -72.00  29.00     0.56782    
 -72.00  30.00     0.58826    
 -72.00  31.00     0.65200    
 -72.00  32.00     0.73847    
 -72.00  33.00     0.82097    
 -72.00  34.00     0.87380    
 -72.00  35.00     0.87858    
 -72.00  36.00     0.82816    
 -72.00  37.00     0.72750    
 -72.00  38.00     0.59165    
 -72.00  39.00     0.44165    
 -72.00  40.00     0.29956    
 -72.00  41.00     0.18383    
 -72.00  42.00     0.10610    
 -72.00  43.00     0.69651E-01
 -72.00  44.00     0.70004E-01
 -72.00  45.00     0.96821E-01
 -72.00  46.00     0.13662    
 -72.00  47.00     0.17609    
 -72.00  48.00     0.20438    
 -72.00  49.00     0.21440    
 -72.00  50.00     0.20392    
 -72.00  51.00     0.17443    
 -72.00  52.00     0.12998    
 -72.00  53.00     0.75619E-01
 -72.00  54.00     0.16058E-01
 -72.00  55.00    -0.45370E-01
 -72.00  56.00    -0.10637    
 -72.00  57.00    -0.16530    
 -72.00  58.00    -0.22012    
 -72.00  59.00    -0.26779    
 -72.00  60.00    -0.30353    
 -72.00  61.00    -0.32234    
 -72.00  62.00    -0.31969    
 -72.00  63.00    -0.29394    
 -72.00  64.00    -0.24749    
 -72.00  65.00    -0.18765    
 -72.00  66.00    -0.12593    
 -72.00  67.00    -0.75545E-01
 -72.00  68.00    -0.48020E-01
 -72.00  69.00    -0.49815E-01
 -72.00  70.00    -0.80213E-01
 -72.00  71.00    -0.13096    
 -72.00  72.00    -0.18631    
 -72.00  73.00    -0.22848    
 -72.00  74.00    -0.24164    
 -72.00  75.00    -0.21732    
 -72.00  76.00    -0.15604    
 -72.00  77.00    -0.68643E-01
 -72.00  78.00     0.27760E-01
 -72.00  79.00     0.11412    
 -72.00  80.00     0.17433    
 -72.00  81.00     0.20045    
 -72.00  82.00     0.19431    
 -72.00  83.00     0.16773    
 -72.00  84.00     0.13672    
 -72.00  85.00     0.11786    
 -72.00  86.00     0.11774    
 -72.00  87.00     0.13632    
 -72.00  88.00     0.16380    
 -72.00  89.00     0.18181    
 -71.00 -89.00     0.50954    
 -71.00 -88.00     0.41704    
 -71.00 -87.00     0.35173    
 -71.00 -86.00     0.31784    
 -71.00 -85.00     0.31037    
 -71.00 -84.00     0.31913    
 -71.00 -83.00     0.33006    
 -71.00 -82.00     0.33189    
 -71.00 -81.00     0.31726    
 -71.00 -80.00     0.28305    
 -71.00 -79.00     0.23157    
 -71.00 -78.00     0.16384    
 -71.00 -77.00     0.82385E-01
 -71.00 -76.00    -0.93118E-02
 -71.00 -75.00    -0.10748    
 -71.00 -74.00    -0.20369    
 -71.00 -73.00    -0.28547    
 -71.00 -72.00    -0.33830    
 -71.00 -71.00    -0.34750    
 -71.00 -70.00    -0.30341    
 -71.00 -69.00    -0.20637    
 -71.00 -68.00    -0.67035E-01
 -71.00 -67.00     0.93467E-01
 -71.00 -66.00     0.24843    
 -71.00 -65.00     0.37298    
 -71.00 -64.00     0.44970    
 -71.00 -63.00     0.47512    
 -71.00 -62.00     0.46013    
 -71.00 -61.00     0.42643    
 -71.00 -60.00     0.39931    
 -71.00 -59.00     0.39866    
 -71.00 -58.00     0.43258    
 -71.00 -57.00     0.49380    
 -71.00 -56.00     0.56203    
 -71.00 -55.00     0.61078    
 -71.00 -54.00     0.61685    
 -71.00 -53.00     0.56932    
 -71.00 -52.00     0.47405    
 -71.00 -51.00     0.35357    
 -71.00 -50.00     0.24045    
 -71.00 -49.00     0.16741    
 -71.00 -48.00     0.15674    
 -71.00 -47.00     0.21294    
 -71.00 -46.00     0.32123    
 -71.00 -45.00     0.45252    
 -71.00 -44.00     0.57302    
 -71.00 -43.00     0.65595    
 -71.00 -42.00     0.69080    
 -71.00 -41.00     0.68700    
 -71.00 -40.00     0.67057    
 -71.00 -39.00     0.67457    
 -71.00 -38.00     0.72651    
 -71.00 -37.00     0.83695    
 -71.00 -36.00     0.99329    
 -71.00 -35.00      1.1612    
 -71.00 -34.00      1.2937    
 -71.00 -33.00      1.3451    
 -71.00 -32.00      1.2857    
 -71.00 -31.00      1.1121    
 -71.00 -30.00     0.85056    
 -71.00 -29.00     0.55045    
 -71.00 -28.00     0.27164    
 -71.00 -27.00     0.67962E-01
 -71.00 -26.00    -0.27249E-01
 -71.00 -25.00    -0.94266E-02
 -71.00 -24.00     0.97687E-01
 -71.00 -23.00     0.25093    
 -71.00 -22.00     0.40210    
 -71.00 -21.00     0.51309    
 -71.00 -20.00     0.56697    
 -71.00 -19.00     0.57164    
 -71.00 -18.00     0.55497    
 -71.00 -17.00     0.55328    
 -71.00 -16.00     0.59720    
 -71.00 -15.00     0.69952    
 -71.00 -14.00     0.84924    
 -71.00 -13.00      1.0136    
 -71.00 -12.00      1.1476    
 -71.00 -11.00      1.2078    
 -71.00 -10.00      1.1657    
 -71.00  -9.00      1.0172    
 -71.00  -8.00     0.78410    
 -71.00  -7.00     0.50839    
 -71.00  -6.00     0.24022    
 -71.00  -5.00     0.24325E-01
 -71.00  -4.00    -0.11143    
 -71.00  -3.00    -0.16181    
 -71.00  -2.00    -0.14285    
 -71.00  -1.00    -0.84247E-01
 -71.00   0.00    -0.18436E-01
 -71.00   1.00     0.30053E-01
 -71.00   2.00     0.51373E-01
 -71.00   3.00     0.51399E-01
 -71.00   4.00     0.47032E-01
 -71.00   5.00     0.57810E-01
 -71.00   6.00     0.96966E-01
 -71.00   7.00     0.16520    
 -71.00   8.00     0.24935    
 -71.00   9.00     0.32649    
 -71.00  10.00     0.37186    
 -71.00  11.00     0.36807    
 -71.00  12.00     0.31228    
 -71.00  13.00     0.21876    
 -71.00  14.00     0.11601    
 -71.00  15.00     0.39034E-01
 -71.00  16.00     0.19233E-01
 -71.00  17.00     0.74969E-01
 -71.00  18.00     0.20573    
 -71.00  19.00     0.39165    
 -71.00  20.00     0.59860    
 -71.00  21.00     0.78719    
 -71.00  22.00     0.92318    
 -71.00  23.00     0.98626    
 -71.00  24.00     0.97472    
 -71.00  25.00     0.90500    
 -71.00  26.00     0.80635    
 -71.00  27.00     0.71237    
 -71.00  28.00     0.65187    
 -71.00  29.00     0.64158    
 -71.00  30.00     0.68238    
 -71.00  31.00     0.76003    
 -71.00  32.00     0.84963    
 -71.00  33.00     0.92249    
 -71.00  34.00     0.95353    
 -71.00  35.00     0.92716    
 -71.00  36.00     0.84049    
 -71.00  37.00     0.70336    
 -71.00  38.00     0.53536    
 -71.00  39.00     0.36104    
 -71.00  40.00     0.20446    
 -71.00  41.00     0.84386E-01
 -71.00  42.00     0.11162E-01
 -71.00  43.00    -0.14452E-01
 -71.00  44.00    -0.17285E-03
 -71.00  45.00     0.40387E-01
 -71.00  46.00     0.91045E-01
 -71.00  47.00     0.13686    
 -71.00  48.00     0.16680    
 -71.00  49.00     0.17497    
 -71.00  50.00     0.16140    
 -71.00  51.00     0.13034    
 -71.00  52.00     0.88436E-01
 -71.00  53.00     0.42494E-01
 -71.00  54.00    -0.24136E-02
 -71.00  55.00    -0.44111E-01
 -71.00  56.00    -0.82598E-01
 -71.00  57.00    -0.11933    
 -71.00  58.00    -0.15532    
 -71.00  59.00    -0.18984    
 -71.00  60.00    -0.21938    
 -71.00  61.00    -0.23873    
 -71.00  62.00    -0.24203    
 -71.00  63.00    -0.22550    
 -71.00  64.00    -0.18942    
 -71.00  65.00    -0.13923    
 -71.00  66.00    -0.85387E-01
 -71.00  67.00    -0.41061E-01
 -71.00  68.00    -0.18173E-01
 -71.00  69.00    -0.24115E-01
 -71.00  70.00    -0.58922E-01
 -71.00  71.00    -0.11483    
 -71.00  72.00    -0.17583    
 -71.00  73.00    -0.22357    
 -71.00  74.00    -0.24145    
 -71.00  75.00    -0.22015    
 -71.00  76.00    -0.16000    
 -71.00  77.00    -0.71709E-01
 -71.00  78.00     0.27039E-01
 -71.00  79.00     0.11637    
 -71.00  80.00     0.17929    
 -71.00  81.00     0.20715    
 -71.00  82.00     0.20147    
 -71.00  83.00     0.17430    
 -71.00  84.00     0.14187    
 -71.00  85.00     0.12112    
 -71.00  86.00     0.11937    
 -71.00  87.00     0.13674    
 -71.00  88.00     0.16381    
 -71.00  89.00     0.18172    
 -70.00 -89.00     0.50743    
 -70.00 -88.00     0.41332    
 -70.00 -87.00     0.34717    
 -70.00 -86.00     0.31323    
 -70.00 -85.00     0.30670    
 -70.00 -84.00     0.31743    
 -70.00 -83.00     0.33106    
 -70.00 -82.00     0.33604    
 -70.00 -81.00     0.32502    
 -70.00 -80.00     0.29460    
 -70.00 -79.00     0.24685    
 -70.00 -78.00     0.18242    
 -70.00 -77.00     0.10372    
 -70.00 -76.00     0.13829E-01
 -70.00 -75.00    -0.83742E-01
 -70.00 -74.00    -0.18093    
 -70.00 -73.00    -0.26549    
 -70.00 -72.00    -0.32315    
 -70.00 -71.00    -0.33946    
 -70.00 -70.00    -0.30437    
 -70.00 -69.00    -0.21770    
 -70.00 -68.00    -0.89285E-01
 -70.00 -67.00     0.60873E-01
 -70.00 -66.00     0.20730    
 -70.00 -65.00     0.32614    
 -70.00 -64.00     0.40079    
 -70.00 -63.00     0.42822    
 -70.00 -62.00     0.41918    
 -70.00 -61.00     0.39474    
 -70.00 -60.00     0.37939    
 -70.00 -59.00     0.39205    
 -70.00 -58.00     0.44003    
 -70.00 -57.00     0.51535    
 -70.00 -56.00     0.59714    
 -70.00 -55.00     0.65840    
 -70.00 -54.00     0.67518    
 -70.00 -53.00     0.63565    
 -70.00 -52.00     0.54450    
 -70.00 -51.00     0.42331    
 -70.00 -50.00     0.30401    
 -70.00 -49.00     0.21961    
 -70.00 -48.00     0.19371    
 -70.00 -47.00     0.23317    
 -70.00 -46.00     0.32630    
 -70.00 -45.00     0.44710    
 -70.00 -44.00     0.56413    
 -70.00 -43.00     0.65144    
 -70.00 -42.00     0.69740    
 -70.00 -41.00     0.70849    
 -70.00 -40.00     0.70653    
 -70.00 -39.00     0.72020    
 -70.00 -38.00     0.77365    
 -70.00 -37.00     0.87610    
 -70.00 -36.00      1.0161    
 -70.00 -35.00      1.1630    
 -70.00 -34.00      1.2748    
 -70.00 -33.00      1.3110    
 -70.00 -32.00      1.2458    
 -70.00 -31.00      1.0776    
 -70.00 -30.00     0.83134    
 -70.00 -29.00     0.55284    
 -70.00 -28.00     0.29698    
 -70.00 -27.00     0.11271    
 -70.00 -26.00     0.29900E-01
 -70.00 -25.00     0.51924E-01
 -70.00 -24.00     0.15622    
 -70.00 -23.00     0.30247    
 -70.00 -22.00     0.44564    
 -70.00 -21.00     0.54983    
 -70.00 -20.00     0.59833    
 -70.00 -19.00     0.59697    
 -70.00 -18.00     0.57000    
 -70.00 -17.00     0.54984    
 -70.00 -16.00     0.56464    
 -70.00 -15.00     0.62746    
 -70.00 -14.00     0.73092    
 -70.00 -13.00     0.84870    
 -70.00 -12.00     0.94361    
 -70.00 -11.00     0.97921    
 -70.00 -10.00     0.93133    
 -70.00  -9.00     0.79577    
 -70.00  -8.00     0.58986    
 -70.00  -7.00     0.34750    
 -70.00  -6.00     0.10955    
 -70.00  -5.00    -0.87314E-01
 -70.00  -4.00    -0.21966    
 -70.00  -3.00    -0.28175    
 -70.00  -2.00    -0.28428    
 -70.00  -1.00    -0.24832    
 -70.00   0.00    -0.19690    
 -70.00   1.00    -0.14721    
 -70.00   2.00    -0.10614    
 -70.00   3.00    -0.70214E-01
 -70.00   4.00    -0.29792E-01
 -70.00   5.00     0.24540E-01
 -70.00   6.00     0.95875E-01
 -70.00   7.00     0.17767    
 -70.00   8.00     0.25455    
 -70.00   9.00     0.30710    
 -70.00  10.00     0.31896    
 -70.00  11.00     0.28374    
 -70.00  12.00     0.20921    
 -70.00  13.00     0.11706    
 -70.00  14.00     0.38035E-01
 -70.00  15.00     0.36453E-02
 -70.00  16.00     0.37062E-01
 -70.00  17.00     0.14586    
 -70.00  18.00     0.31896    
 -70.00  19.00     0.52873    
 -70.00  20.00     0.73780    
 -70.00  21.00     0.90861    
 -70.00  22.00      1.0130    
 -70.00  23.00      1.0392    
 -70.00  24.00     0.99422    
 -70.00  25.00     0.90146    
 -70.00  26.00     0.79381    
 -70.00  27.00     0.70479    
 -70.00  28.00     0.65986    
 -70.00  29.00     0.67024    
 -70.00  30.00     0.73074    
 -70.00  31.00     0.82180    
 -70.00  32.00     0.91503    
 -70.00  33.00     0.98055    
 -70.00  34.00     0.99426    
 -70.00  35.00     0.94322    
 -70.00  36.00     0.82818    
 -70.00  37.00     0.66278    
 -70.00  38.00     0.47001    
 -70.00  39.00     0.27691    
 -70.00  40.00     0.10897    
 -70.00  41.00    -0.14820E-01
 -70.00  42.00    -0.84948E-01
 -70.00  43.00    -0.10237    
 -70.00  44.00    -0.77103E-01
 -70.00  45.00    -0.25207E-01
 -70.00  46.00     0.34983E-01
 -70.00  47.00     0.87031E-01
 -70.00  48.00     0.11946    
 -70.00  49.00     0.12717    
 -70.00  50.00     0.11186    
 -70.00  51.00     0.80131E-01
 -70.00  52.00     0.40969E-01
 -70.00  53.00     0.29919E-02
 -70.00  54.00    -0.28091E-01
 -70.00  55.00    -0.50829E-01
 -70.00  56.00    -0.67121E-01
 -70.00  57.00    -0.81230E-01
 -70.00  58.00    -0.97075E-01
